ply
format ascii 1.0
element vertex 1262
property float x
property float y
property float z
property uchar red
property uchar green
property uchar blue
end_header
-0.076775 0.794886 -0.041688 76 153 0
0.268123 -0.253350 -0.195841 76 0 153
-0.130508 -0.175444 -0.249912 153 0 76
-0.144376 -0.175444 -0.014946 153 0 76
0.072480 -0.151254 -0.026168 76 0 153
-0.060955 0.950207 0.273463 76 153 0
-0.007812 0.645132 -0.081152 76 153 0
-0.033485 -0.101728 0.086254 153 0 76
-0.535841 -0.198151 0.191113 76 0 153
-0.464325 -0.174245 0.046680 76 0 153
-0.521832 -0.151254 -0.081076 76 0 153
-0.066298 0.101527 0.003184 76 153 0
-0.088340 -0.174852 0.309157 76 0 153
-0.076602 -0.151254 -0.082929 76 0 153
0.493634 -0.253350 0.011889 153 76 0
-0.180688 -0.176621 -0.349788 76 0 153
-0.138703 -0.253350 0.209217 76 0 153
-0.050718 0.218481 -0.080236 76 153 0
0.455904 -0.151254 -0.238575 76 0 153
0.329469 0.030030 -0.092324 0 255 0
-0.067101 0.316602 -0.003447 76 153 0
-0.416212 -0.215617 -0.003592 76 0 153
0.030118 -0.086195 0.101261 153 0 76
-0.406574 0.007808 -0.160227 127 127 0
-0.305472 -0.151254 -0.026951 76 0 153
-0.069697 0.688356 -0.007254 76 153 0
0.423188 -0.114520 -0.032929 153 76 0
0.370123 -0.151254 -0.211433 76 0 153
-0.020631 -0.059369 -0.139474 153 0 76
0.628177 -0.151254 0.029590 76 0 153
0.024464 0.904258 0.131839 76 153 0
0.045851 -0.253350 0.029907 76 0 153
-0.168893 -0.117731 -0.162943 153 0 76
0.215245 -0.211962 0.217745 76 0 153
-0.471277 -0.253350 -0.188383 76 0 153
0.014940 0.421193 -0.008771 76 153 0
-0.681480 -0.151254 -0.025953 76 0 153
0.233938 -0.151254 -0.208247 76 0 153
-0.060499 -0.151254 -0.227297 76 0 153
-0.003283 -0.032484 0.089540 153 0 76
-0.447255 -0.151254 -0.198756 76 0 153
-0.011712 -0.037992 -0.082519 76 153 0
0.163762 -0.253350 0.160042 76 0 153
-0.477591 -0.146586 -0.069401 76 0 153
-0.082439 0.791883 0.411760 76 153 0
-0.321219 -0.214845 -0.267943 76 0 153
-0.121052 -0.070355 -0.123546 153 0 76
-0.055312 0.562606 -0.081751 76 153 0
-0.001819 -0.081070 0.012023 76 153 0
0.012675 0.621667 0.000821 76 153 0
0.371518 -0.253350 -0.129440 76 0 153
0.041192 0.006793 0.071417 153 0 76
0.314493 -0.151254 -0.100064 76 0 153
-0.271381 -0.151254 -0.142350 76 0 153
-0.073946 -0.079897 -0.013807 76 153 0
-0.015656 -0.123520 0.179619 153 0 76
0.486729 -0.253350 0.149115 76 0 153
0.452535 0.017220 -0.074861 0 255 0
-0.539085 -0.253350 -0.153166 76 0 153
0.708671 -0.253350 0.003472 76 0 153
-0.552811 -0.253350 0.157726 76 0 153
-0.432876 -0.222038 -0.082685 76 0 153
-0.420542 -0.151254 0.002206 76 0 153
-0.190528 -0.112287 -0.108772 153 0 76
0.450176 -0.253350 0.085668 76 0 153
0.476726 0.014692 0.020638 0 255 0
0.681188 -0.253350 0.087864 76 0 153
-0.518016 -0.253350 0.112483 76 0 153
-0.056687 0.670939 0.438928 204 51 127
-0.077579 -0.111727 0.140257 153 0 76
0.467296 -0.100276 -0.021282 153 76 0
-0.669472 -0.223277 0.107607 76 0 153
0.100596 -0.253350 0.060394 76 0 153
0.460880 -0.078032 -0.059043 153 76 0
0.086592 -0.037134 -0.090444 153 0 76
0.013794 0.889078 0.192502 76 153 0
0.425965 -0.151254 -0.177105 76 0 153
-0.218881 -0.153928 -0.328144 76 0 153
-0.064164 0.077509 -0.139785 153 0 76
-0.368235 -0.253350 -0.135858 76 0 153
0.092684 -0.081632 0.041976 153 0 76
0.439802 0.039090 -0.028095 0 255 0
0.580605 -0.151254 -0.094545 76 0 153
0.009994 -0.253350 0.105009 76 0 153
0.126449 -0.120312 0.097006 153 0 76
0.034706 -0.151254 -0.229537 76 0 153
-0.125348 -0.175444 -0.109720 153 0 76
0.041871 -0.253350 0.222945 76 0 153
0.153241 -0.218394 0.263932 76 0 153
-0.658069 -0.151254 0.057510 76 0 153
0.020400 0.740116 -0.019820 76 153 0
0.006470 0.784738 0.448516 204 51 127
0.245303 -0.180530 0.198995 76 0 153
-0.440293 -0.151254 -0.161308 76 0 153
-0.230587 -0.121511 -0.044820 153 0 76
0.126236 -0.152277 0.278581 76 0 153
0.559471 -0.000531 0.041659 0 255 0
-0.193369 -0.151254 -0.065529 76 0 153
0.094076 -0.253350 -0.006475 76 0 153
0.019263 0.483039 -0.008885 76 153 0
-0.571305 -0.151254 0.143244 76 0 153
-0.381414 -0.253350 0.110319 76 0 153
0.007930 0.153982 -0.012136 153 0 76
0.003211 0.850090 -0.052512 76 153 0
-0.077961 0.614519 -0.028031 76 153 0
0.568091 -0.162443 -0.258995 76 0 153
-0.255601 -0.172587 -0.109900 153 0 76
0.394007 -0.253350 0.056513 76 0 153
0.141817 -0.151254 -0.125863 76 0 153
0.190250 -0.151254 0.175304 76 0 153
-0.201704 -0.253350 -0.137692 76 0 153
0.052570 -0.151254 -0.342513 76 0 153
-0.059739 -0.021869 -0.074603 76 153 0
0.417450 0.002788 0.076535 0 255 0
-0.195551 -0.151254 -0.122463 76 0 153
-0.552816 -0.151254 0.011308 76 0 153
0.062139 -0.253350 -0.225807 76 0 153
-0.310815 -0.253350 -0.094235 76 0 153
-0.490514 -0.100265 -0.020160 76 0 153
0.009557 0.761934 0.341496 204 51 127
0.521866 -0.181734 0.035092 153 76 0
-0.047970 0.776901 -0.078468 76 153 0
-0.073789 0.352391 -0.064404 76 153 0
-0.347997 -0.253350 0.045999 76 0 153
0.285605 -0.228032 -0.247801 76 0 153
0.010899 0.955584 0.123673 76 153 0
-0.627521 0.038951 -0.104804 127 127 0
-0.049920 -0.080219 0.013878 76 153 0
-0.434342 -0.253350 -0.168953 76 0 153
0.434054 -0.253350 -0.095812 153 76 0
-0.585687 -0.253350 -0.015176 76 0 153
-0.032774 -0.175444 -0.061906 153 0 76
0.072156 -0.151254 0.229326 76 0 153
0.352246 0.029121 -0.120625 0 255 0
-0.530207 -0.125037 -0.003805 76 0 153
0.311271 -0.151254 -0.169785 76 0 153
-0.271124 -0.151254 0.089846 76 0 153
-0.125136 -0.061070 0.024116 153 0 76
-0.006083 0.159536 -0.060623 153 0 76
0.673678 -0.253350 -0.063550 76 0 153
0.167181 -0.120404 -0.083392 153 0 76
0.524607 0.017136 -0.103881 0 255 0
-0.083957 -0.175444 0.086174 153 0 76
-0.045539 -0.175444 0.172296 153 0 76
-0.093786 -0.253350 0.179762 76 0 153
-0.384711 0.029286 0.059344 127 127 0
0.612365 -0.151254 -0.044717 76 0 153
-0.065156 0.746775 0.438857 76 153 0
-0.111796 -0.151254 0.214750 76 0 153
0.584240 -0.253350 0.154322 76 0 153
-0.442102 -0.151254 0.064428 76 0 153
0.117158 -0.089194 -0.066466 153 0 76
-0.595547 0.006140 0.098835 127 127 0
-0.643665 -0.253350 -0.019540 76 0 153
0.453457 -0.247118 0.208740 76 0 153
0.122726 -0.253350 -0.308709 76 0 153
0.263714 -0.253350 0.082799 76 0 153
-0.067897 0.099328 -0.065997 76 153 0
0.150146 -0.151254 0.038542 76 0 153
-0.254598 -0.183028 0.231058 76 0 153
-0.376933 -0.253350 -0.182464 76 0 153
0.699572 -0.153417 -0.135452 76 0 153
-0.091078 0.670341 0.446352 204 51 127
-0.540900 0.018011 0.072857 127 127 0
-0.168554 -0.253350 0.024847 76 0 153
-0.175254 -0.216045 0.282167 76 0 153
-0.244586 -0.128029 -0.136589 153 0 76
-0.134803 -0.127478 0.183966 153 0 76
-0.080903 0.138579 -0.071427 153 0 76
0.511114 -0.195114 -0.099570 153 76 0
-0.100002 -0.253350 -0.201328 76 0 153
-0.116528 0.071032 -0.106175 153 0 76
0.297063 -0.233771 0.182594 76 0 153
0.415004 -0.253350 -0.017573 76 0 153
0.565868 -0.151254 -0.145599 76 0 153
-0.188610 -0.151254 -0.160331 76 0 153
-0.607579 -0.151254 -0.103712 76 0 153
-0.609025 -0.253350 -0.168159 76 0 153
-0.045791 0.723082 0.478959 204 51 127
0.399557 -0.253350 -0.088158 76 0 153
-0.005155 0.944330 0.328831 76 153 0
-0.219942 -0.253350 -0.194450 76 0 153
-0.099138 -0.085753 -0.157237 153 0 76
-0.350775 -0.234874 -0.258879 76 0 153
0.022421 0.058274 -0.038204 76 153 0
0.324319 -0.151254 0.007156 76 0 153
-0.029657 0.206424 0.018543 76 153 0
0.491739 0.044121 -0.029022 0 255 0
-0.014069 0.749222 -0.086983 76 153 0
-0.265847 -0.185729 -0.293751 76 0 153
0.287458 -0.151254 0.068856 76 0 153
0.353070 -0.151254 -0.159884 76 0 153
-0.595437 -0.003027 -0.090266 127 127 0
-0.197292 -0.249518 -0.341424 76 0 153
0.078693 -0.175444 0.043956 153 0 76
0.422570 -0.220145 0.034622 153 76 0
-0.246207 -0.151254 -0.220301 76 0 153
0.466109 -0.245918 -0.275454 76 0 153
0.391816 -0.128720 -0.027354 153 76 0
0.023841 0.291110 -0.019110 76 153 0
-0.606840 -0.151645 -0.219381 76 0 153
-0.002097 0.087360 0.008002 76 153 0
-0.442910 -0.119369 -0.004556 76 0 153
-0.229041 -0.248659 0.250982 76 0 153
0.029203 0.736866 0.356725 204 51 127
-0.068387 0.883554 0.102004 76 153 0
0.524980 -0.149460 -0.090011 153 76 0
0.140230 -0.151254 -0.019844 76 0 153
-0.700182 -0.187334 0.052588 76 0 153
-0.053823 0.017262 -0.159472 153 0 76
0.552094 -0.249718 -0.041814 153 76 0
0.335300 -0.253350 -0.061468 76 0 153
-0.307377 -0.177328 0.192483 76 0 153
-0.159963 -0.243979 -0.359114 76 0 153
0.021227 -0.151254 0.155428 76 0 153
0.064611 -0.019795 0.051960 153 0 76
-0.283661 -0.253350 0.035019 76 0 153
-0.055463 -0.151254 0.285717 76 0 153
-0.179636 -0.094146 -0.018157 153 0 76
-0.072718 0.855779 0.333929 76 153 0
0.006366 0.022579 0.001678 76 153 0
-0.037808 0.858179 0.268190 76 153 0
0.015705 0.894940 0.006525 76 153 0
-0.049432 -0.151254 0.145474 76 0 153
-0.581506 -0.253350 -0.198530 76 0 153
-0.030079 0.780756 0.025127 76 153 0
-0.103472 -0.151254 -0.290235 76 0 153
-0.511278 0.000232 -0.025389 127 127 0
0.466112 -0.126462 -0.102160 153 76 0
-0.453902 -0.151254 0.102044 76 0 153
-0.465517 -0.151254 0.192594 76 0 153
-0.012039 -0.072228 -0.086611 76 153 0
0.375382 -0.253350 0.003484 76 0 153
-0.093725 -0.253350 -0.310390 76 0 153
-0.401076 0.003663 0.012536 127 127 0
-0.497849 -0.253350 0.072252 76 0 153
-0.065983 0.819345 0.425639 76 153 0
-0.056266 0.380447 -0.076819 76 153 0
-0.120049 -0.253350 0.140122 76 0 153
-0.020284 0.278693 -0.084282 76 153 0
-0.054360 -0.101728 -0.031604 153 0 76
-0.003290 -0.253350 -0.001421 76 0 153
-0.010683 -0.253350 -0.080852 76 0 153
-0.076703 0.410905 -0.021472 76 153 0
-0.081603 0.851886 0.372183 76 153 0
-0.399066 -0.151254 0.062617 76 0 153
0.048978 -0.122093 0.159715 153 0 76
0.507938 -0.253350 0.073764 76 0 153
-0.347434 -0.151254 -0.167987 76 0 153
0.091328 -0.151254 0.118172 76 0 153
-0.228759 -0.175444 0.032799 153 0 76
0.010297 0.587520 -0.068015 76 153 0
-0.569103 -0.253350 -0.126467 76 0 153
0.076633 -0.157571 0.298776 76 0 153
0.364619 -0.151254 0.039711 76 0 153
0.076844 -0.162619 0.186267 153 0 76
0.023510 0.651291 0.398150 204 51 127
0.092339 -0.101360 -0.143088 153 0 76
0.011653 0.894012 0.372136 76 153 0
-0.073200 0.939055 0.203321 76 153 0
-0.062461 0.930730 0.040313 76 153 0
-0.061718 -0.151254 0.220199 76 0 153
-0.036476 0.728517 0.366623 76 153 0
-0.230362 -0.172654 0.097875 153 0 76
0.453271 0.000479 -0.026898 0 255 0
0.191224 -0.253350 0.074347 76 0 153
-0.346317 -0.253350 -0.030751 76 0 153
-0.100199 -0.151254 -0.155519 76 0 153
0.674758 -0.253350 0.052952 76 0 153
-0.570442 -0.134056 -0.051165 76 0 153
0.082495 -0.151254 -0.058719 76 0 153
0.219211 -0.253350 0.039712 76 0 153
-0.442919 -0.177697 -0.091981 76 0 153
0.001529 0.957659 0.170354 76 153 0
-0.027511 0.677603 0.329604 204 51 127
0.270330 -0.253350 0.127422 76 0 153
-0.079609 0.933884 0.150565 76 153 0
-0.126051 -0.073713 0.057827 153 0 76
-0.106557 -0.151254 0.250754 76 0 153
0.569719 -0.151254 0.027378 76 0 153
-0.078581 0.299215 -0.038740 76 153 0
0.016203 -0.063299 0.080607 153 0 76
-0.628802 -0.151254 0.033797 76 0 153
-0.210124 -0.175444 -0.015407 153 0 76
0.448495 -0.184381 -0.105785 153 76 0
-0.164953 -0.253350 0.162129 76 0 153
0.452993 -0.171209 0.208712 76 0 153
-0.549465 0.005255 -0.061095 127 127 0
0.025849 -0.085100 -0.032439 76 153 0
0.432231 -0.253350 -0.212840 76 0 153
-0.543631 -0.231982 -0.091468 76 0 153
-0.680738 -0.250561 0.091280 76 0 153
0.503638 0.023684 -0.133432 0 255 0
0.494583 -0.151254 -0.178782 76 0 153
0.034871 -0.151254 -0.066881 76 0 153
-0.572617 -0.217672 -0.041342 76 0 153
-0.026009 -0.253350 0.275030 76 0 153
-0.011847 -0.151254 0.115914 76 0 153
-0.298687 -0.151254 -0.256871 76 0 153
0.327394 -0.151254 -0.228055 76 0 153
0.347106 -0.151254 -0.091880 76 0 153
0.022637 -0.151254 -0.190137 76 0 153
0.205212 -0.159083 0.035668 153 0 76
-0.032162 -0.175444 -0.175608 153 0 76
0.047281 -0.063479 -0.137889 153 0 76
0.371832 0.030592 0.093508 0 255 0
0.034526 -0.151254 -0.306177 76 0 153
0.408518 -0.221710 -0.265480 76 0 153
-0.087425 -0.151254 0.046229 76 0 153
0.047019 0.094510 0.033396 153 0 76
0.493776 0.031169 -0.066537 0 255 0
-0.659770 -0.253350 -0.140591 76 0 153
0.140395 -0.253350 0.210601 76 0 153
0.115146 -0.151254 -0.146139 76 0 153
-0.715126 -0.243232 -0.034926 76 0 153
-0.444052 0.031485 -0.111584 127 127 0
-0.122379 -0.253350 0.294224 76 0 153
0.026313 0.823140 -0.015082 76 153 0
-0.275331 -0.253350 -0.022588 76 0 153
0.496547 -0.253350 0.181093 76 0 153
-0.124296 -0.151254 0.008941 76 0 153
-0.140725 -0.253350 -0.268164 76 0 153
0.019841 -0.253350 0.068265 76 0 153
-0.283280 -0.227031 0.206834 76 0 153
0.204888 -0.249622 -0.296510 76 0 153
-0.032778 0.784487 0.452867 76 153 0
-0.130943 -0.095076 -0.146407 153 0 76
-0.056084 0.152716 -0.000443 153 0 76
0.712300 -0.219966 -0.102031 76 0 153
-0.023987 0.666788 0.450628 204 51 127
-0.153660 -0.151254 -0.266202 76 0 153
0.180426 -0.151254 0.014680 76 0 153
0.485584 -0.218901 -0.275875 76 0 153
0.057911 -0.253350 0.147872 76 0 153
-0.442025 -0.001920 -0.151497 127 127 0
-0.117614 -0.175444 0.053692 153 0 76
-0.094124 0.048708 0.066359 153 0 76
0.457000 -0.253350 -0.056469 76 0 153
-0.112393 -0.151254 -0.327412 76 0 153
0.003005 0.060089 0.078209 153 0 76
0.070780 -0.253350 -0.263509 76 0 153
-0.557337 -0.179318 -0.241378 76 0 153
0.016246 -0.100667 -0.154434 153 0 76
-0.028571 0.118855 0.048667 153 0 76
-0.415585 0.026846 0.043144 127 127 0
0.108135 -0.081495 0.006928 153 0 76
0.146658 -0.175444 -0.197926 153 0 76
-0.086796 -0.038139 0.077418 153 0 76
-0.625643 -0.151254 -0.075824 76 0 153
-0.065675 -0.175444 0.016480 153 0 76
0.211892 -0.132280 -0.069728 153 0 76
0.007893 -0.175444 0.011406 153 0 76
0.158036 -0.253350 0.084090 76 0 153
-0.013449 -0.107959 -0.204464 153 0 76
-0.072456 -0.019282 -0.154304 153 0 76
0.036126 -0.151254 0.194356 76 0 153
0.120122 -0.175444 -0.074229 153 0 76
0.522671 -0.151254 -0.207921 76 0 153
-0.397435 -0.151254 -0.131999 76 0 153
-0.155677 -0.151254 -0.198590 76 0 153
-0.232895 -0.175444 -0.077660 153 0 76
0.452530 -0.253350 -0.180732 76 0 153
0.434446 -0.135856 -0.099847 153 76 0
0.015129 0.887859 0.103188 76 153 0
-0.583740 -0.253350 0.133239 76 0 153
-0.593646 -0.220572 0.170800 76 0 153
0.274453 -0.202826 0.187626 76 0 153
-0.016770 -0.222846 0.314307 76 0 153
-0.081020 0.720953 -0.024902 76 153 0
-0.411576 -0.151254 -0.051028 76 0 153
0.012825 0.934152 0.063223 76 153 0
0.589344 -0.253350 0.095561 76 0 153
0.022208 -0.253350 -0.107687 76 0 153
0.540937 -0.253350 -0.237629 76 0 153
0.033759 0.072087 -0.129931 153 0 76
0.412128 -0.169052 0.024875 153 76 0
-0.064029 -0.028895 0.005487 76 153 0
-0.543957 -0.175494 -0.091203 76 0 153
0.000329 -0.175444 0.136508 153 0 76
-0.074870 -0.253350 -0.070415 76 0 153
0.037591 -0.175444 0.140252 153 0 76
0.660657 -0.151254 0.093933 76 0 153
0.073562 -0.101728 -0.094617 153 0 76
-0.289468 -0.151254 -0.194909 76 0 153
-0.190607 -0.175444 0.087296 153 0 76
0.011900 -0.202628 -0.383002 76 0 153
-0.022853 0.970535 0.222022 76 153 0
-0.374943 -0.173085 -0.253575 76 0 153
0.549402 -0.228120 -0.004068 153 76 0
0.020559 0.740397 0.417222 76 153 0
-0.005158 0.647093 0.474513 204 51 127
0.005065 -0.101728 0.039648 153 0 76
0.685453 -0.151254 -0.069504 76 0 153
0.478881 -0.253350 -0.122020 76 0 153
-0.119529 -0.253350 -0.338991 76 0 153
0.079175 -0.232270 -0.368434 76 0 153
-0.139567 -0.151254 -0.059043 76 0 153
0.028017 0.131808 0.009211 153 0 76
0.364420 0.011330 -0.071046 0 255 0
0.654761 -0.253350 0.115066 76 0 153
0.030191 -0.105879 -0.191630 153 0 76
-0.081535 0.572716 -0.041824 76 153 0
-0.472362 -0.151254 0.021582 76 0 153
-0.097323 -0.253350 0.259162 76 0 153
0.020725 0.930604 0.183704 76 153 0
-0.638908 -0.183547 0.140335 76 0 153
-0.068685 0.671063 -0.071188 76 153 0
-0.598096 -0.151254 0.045858 76 0 153
0.078473 -0.248228 0.298292 76 0 153
-0.007380 -0.165169 -0.384275 76 0 153
0.122152 -0.253350 -0.106840 76 0 153
0.075092 -0.058531 -0.009524 153 0 76
-0.482630 -0.166482 -0.250811 76 0 153
-0.461012 0.005274 -0.003850 127 127 0
-0.156637 -0.126015 0.153557 153 0 76
-0.050512 0.867720 0.211686 76 153 0
-0.031041 -0.151254 -0.291442 76 0 153
0.016763 -0.101728 -0.086817 153 0 76
-0.135918 0.063222 -0.079186 153 0 76
-0.036522 -0.051842 0.040204 153 0 76
0.096756 -0.126003 -0.221790 153 0 76
0.513258 -0.126946 0.038065 153 76 0
-0.447280 -0.126876 -0.090621 76 0 153
0.091974 -0.253350 0.186046 76 0 153
0.157964 -0.151254 0.119900 76 0 153
-0.046213 -0.040249 0.090550 153 0 76
-0.512779 -0.225056 0.194487 76 0 153
-0.541209 -0.229670 0.035989 76 0 153
0.057361 -0.151254 -0.163124 76 0 153
0.058046 -0.155151 -0.374200 76 0 153
-0.046970 0.068629 0.077731 153 0 76
-0.705528 -0.231724 0.037571 76 0 153
0.552658 0.013171 -0.135927 0 255 0
-0.087348 -0.126987 -0.264257 153 0 76
0.242686 -0.151254 -0.014839 76 0 153
-0.228177 -0.253350 0.087049 76 0 153
-0.064213 0.432694 -0.075853 76 153 0
-0.198919 -0.151254 0.182138 76 0 153
0.098079 -0.175444 -0.039257 153 0 76
-0.008609 -0.175444 -0.040474 153 0 76
-0.399181 -0.253350 0.083400 76 0 153
-0.017441 0.270247 0.017609 76 153 0
-0.672042 -0.151254 -0.093266 76 0 153
-0.606342 -0.151254 -0.165451 76 0 153
-0.656589 -0.214053 -0.178892 76 0 153
-0.166416 -0.151254 0.204165 76 0 153
-0.012843 -0.253350 -0.355124 76 0 153
-0.010919 -0.030725 0.015768 76 153 0
0.526289 -0.253350 0.016277 76 0 153
-0.703772 -0.212792 -0.098967 76 0 153
-0.274901 -0.253350 -0.169577 76 0 153
0.287022 -0.253350 -0.224503 76 0 153
-0.462082 -0.151254 -0.041646 76 0 153
0.195947 -0.183548 -0.303819 76 0 153
-0.334159 -0.151254 0.096129 76 0 153
-0.592925 0.036056 -0.100518 127 127 0
-0.071930 0.880017 0.271124 76 153 0
-0.035637 0.113017 0.017922 76 153 0
0.077903 -0.253350 0.102120 76 0 153
-0.453719 -0.253350 0.085602 76 0 153
-0.010872 0.729922 0.332528 204 51 127
0.589341 -0.231534 -0.249464 76 0 153
0.259416 -0.253350 0.191593 76 0 153
0.548952 -0.174831 -0.054636 153 76 0
0.051221 -0.151254 0.002813 76 0 153
-0.016042 0.471225 -0.083797 76 153 0
0.409558 -0.209698 0.199689 76 0 153
0.257455 -0.253350 0.051407 76 0 153
-0.023610 0.908159 0.384333 76 153 0
-0.484961 -0.253350 -0.129291 76 0 153
-0.564502 -0.216565 0.183333 76 0 153
0.431426 -0.181934 -0.271343 76 0 153
0.140450 -0.151254 -0.276235 76 0 153
-0.508822 -0.170557 0.050426 76 0 153
-0.246584 -0.135061 0.068508 153 0 76
0.583514 -0.151254 -0.217125 76 0 153
0.022217 0.899108 0.071724 76 153 0
-0.074545 0.881787 -0.009011 76 153 0
-0.036088 0.712499 -0.088370 76 153 0
0.309682 -0.253350 0.154274 76 0 153
-0.150608 -0.048184 -0.068525 153 0 76
-0.073449 0.766667 0.383909 76 153 0
0.133671 -0.151254 -0.176703 76 0 153
0.197925 -0.151254 -0.189048 76 0 153
-0.493058 -0.149861 -0.005615 76 0 153
-0.052749 0.566259 0.008675 76 153 0
-0.081664 0.020174 -0.031258 76 153 0
0.050764 -0.253350 -0.036472 76 0 153
0.047103 -0.072243 0.078259 153 0 76
-0.225913 -0.151254 -0.028734 76 0 153
0.595323 0.034799 0.032577 0 255 0
-0.075064 -0.101728 -0.090481 153 0 76
-0.141922 -0.175444 0.023660 153 0 76
0.454110 -0.151254 -0.206837 76 0 153
0.541588 -0.227881 -0.070433 153 76 0
0.665648 -0.175729 -0.188826 76 0 153
0.102282 -0.151254 -0.326216 76 0 153
-0.078634 0.372732 -0.040547 76 153 0
0.640035 -0.226554 -0.215188 76 0 153
0.016384 -0.151254 0.064055 76 0 153
-0.027770 0.760069 0.331448 204 51 127
0.465159 -0.151254 0.021943 76 0 153
-0.708562 -0.182822 -0.081978 76 0 153
-0.022885 0.495790 0.014083 76 153 0
0.452255 -0.224299 -0.106792 153 76 0
0.668149 -0.222799 -0.185677 76 0 153
0.384069 -0.151254 -0.241125 76 0 153
0.534599 -0.245537 -0.269642 76 0 153
0.001670 -0.099670 0.125731 153 0 76
-0.346751 -0.151254 -0.001341 76 0 153
0.013543 0.776991 -0.060087 76 153 0
0.021985 0.547529 -0.013723 76 153 0
0.383612 -0.253088 -0.256436 76 0 153
-0.563691 -0.224090 0.010112 76 0 153
-0.373661 -0.207786 -0.253826 76 0 153
-0.603310 -0.151254 0.092821 76 0 153
0.060880 0.048811 0.047393 153 0 76
0.046870 0.747933 0.399498 204 51 127
-0.129633 -0.151254 -0.229694 76 0 153
-0.081302 0.908943 0.251754 76 153 0
-0.432488 0.040369 -0.140298 127 127 0
-0.500417 0.006779 0.004333 127 127 0
-0.517737 -0.151254 0.101038 76 0 153
-0.049654 0.258556 -0.080608 76 153 0
0.386721 0.025399 0.056245 0 255 0
-0.054528 -0.047055 -0.018674 153 0 76
0.132136 -0.151254 0.101310 76 0 153
0.392747 -0.158776 -0.016735 153 76 0
0.264767 -0.253350 -0.134979 76 0 153
-0.077646 0.876140 0.040719 76 153 0
-0.064288 0.014322 -0.070030 76 153 0
0.567595 0.028437 0.010562 0 255 0
0.158941 -0.253350 -0.113778 76 0 153
0.447647 -0.088211 0.001879 153 76 0
-0.043745 0.845031 -0.062743 76 153 0
-0.127749 -0.253350 0.065739 76 0 153
-0.072953 0.856660 0.402836 76 153 0
0.498515 -0.151254 -0.250156 76 0 153
0.721476 -0.224030 -0.054271 76 0 153
-0.016199 0.435827 -0.087890 76 153 0
-0.454374 -0.253350 -0.027488 76 0 153
0.113148 -0.151254 0.240810 76 0 153
0.084697 -0.175444 0.136984 153 0 76
0.180230 -0.253350 -0.246583 76 0 153
0.016326 -0.125545 -0.010738 76 153 0
-0.390824 -0.151254 0.163617 76 0 153
-0.074633 -0.253350 -0.034980 76 0 153
-0.646419 -0.224497 0.133330 76 0 153
-0.256521 -0.151254 0.177104 76 0 153
-0.558994 -0.181265 0.017678 76 0 153
-0.503376 -0.151254 -0.184922 76 0 153
-0.463974 -0.209575 0.193600 76 0 153
-0.142703 -0.253350 -0.104748 76 0 153
0.105953 -0.175444 0.060324 153 0 76
-0.077285 0.664512 0.399652 204 51 127
-0.225813 -0.253350 -0.069148 76 0 153
0.056795 0.117273 -0.045100 153 0 76
-0.037840 -0.253350 -0.213483 76 0 153
-0.059912 0.121051 -0.110684 153 0 76
0.011466 0.297058 -0.066712 76 153 0
-0.078190 0.850967 -0.005711 76 153 0
-0.001242 0.864138 0.268904 76 153 0
-0.077553 0.464654 -0.013175 76 153 0
0.180194 -0.175444 -0.137037 153 0 76
0.134615 -0.175444 0.019338 153 0 76
-0.072308 -0.151254 -0.290389 76 0 153
0.098461 -0.151254 -0.102377 76 0 153
0.431531 0.027317 0.035721 0 255 0
0.026884 -0.151254 -0.276006 76 0 153
-0.024758 0.133486 -0.104819 153 0 76
-0.565963 -0.217075 -0.238504 76 0 153
-0.027339 0.077012 -0.146168 153 0 76
0.496338 -0.201378 0.209370 76 0 153
-0.575027 0.007540 0.054108 127 127 0
0.056466 -0.172943 -0.258898 153 0 76
-0.006334 0.614328 -0.084817 76 153 0
-0.013019 -0.151254 -0.231794 76 0 153
-0.039698 -0.071741 0.091418 153 0 76
0.493091 -0.023033 -0.030576 0 255 0
-0.278000 -0.151254 0.011571 76 0 153
-0.447848 -0.220835 0.038153 76 0 153
0.514111 -0.151254 0.116018 76 0 153
-0.036868 -0.253350 -0.101406 76 0 153
-0.087781 0.769332 0.444428 204 51 127
-0.476667 -0.253350 -0.223686 76 0 153
0.178178 -0.151254 -0.096171 76 0 153
-0.042629 -0.151254 0.022558 76 0 153
-0.072316 0.521546 -0.004339 76 153 0
-0.057327 0.163521 -0.076296 76 153 0
-0.080335 -0.027694 -0.020811 76 153 0
-0.053492 0.965036 0.165187 76 153 0
0.003829 0.671710 0.336437 204 51 127
-0.103971 -0.012047 -0.137229 153 0 76
0.112487 -0.151254 -0.250655 76 0 153
0.071115 0.096122 -0.017491 153 0 76
-0.619903 -0.253350 0.105795 76 0 153
0.096989 -0.151254 -0.171160 76 0 153
0.169405 -0.151254 0.063769 76 0 153
-0.480591 -0.253350 0.165260 76 0 153
0.415264 -0.253350 0.026641 153 76 0
-0.259023 -0.169638 0.034297 153 0 76
-0.127921 -0.151254 0.150570 76 0 153
-0.069879 -0.175444 0.152239 153 0 76
0.157469 -0.158349 -0.331770 76 0 153
-0.053167 0.841020 0.057488 76 153 0
0.003685 -0.126335 -0.259017 153 0 76
-0.378688 -0.253350 0.142763 76 0 153
-0.068080 0.728558 -0.065742 76 153 0
0.446815 -0.253350 -0.239951 76 0 153
0.018155 -0.175444 -0.075929 153 0 76
-0.016030 -0.151254 0.155646 76 0 153
0.056400 -0.101728 -0.033402 153 0 76
-0.475765 -0.082239 -0.059163 76 0 153
0.718653 -0.187683 0.008219 76 0 153
0.101854 -0.117667 -0.176180 153 0 76
-0.550788 -0.141851 -0.084951 76 0 153
-0.627950 -0.253350 0.049180 76 0 153
0.212974 -0.151254 0.097297 76 0 153
-0.284184 -0.253350 -0.270744 76 0 153
0.237019 -0.253350 -0.266291 76 0 153
0.179533 -0.122449 -0.055408 153 0 76
-0.066992 -0.151254 -0.035426 76 0 153
-0.045348 -0.151254 -0.194300 76 0 153
0.134974 -0.151254 0.181930 76 0 153
-0.714070 -0.151254 -0.005661 76 0 153
-0.136289 0.012597 -0.101773 153 0 76
-0.040621 -0.083782 -0.173966 153 0 76
-0.647629 -0.253350 -0.053149 76 0 153
0.024233 -0.151254 -0.148245 76 0 153
-0.381959 -0.151254 -0.043388 76 0 153
-0.409374 -0.253350 -0.056114 76 0 153
-0.540030 -0.112078 -0.029681 76 0 153
-0.217041 -0.132823 -0.180906 153 0 76
-0.031379 -0.151254 0.184409 76 0 153
-0.153197 -0.151254 -0.031346 76 0 153
-0.513301 -0.155279 0.194460 76 0 153
-0.186401 -0.253350 -0.303594 76 0 153
-0.009392 0.746000 0.451647 76 153 0
0.024895 0.379847 -0.023227 76 153 0
0.152003 -0.121006 0.063364 153 0 76
0.619343 -0.151254 0.071085 76 0 153
0.543261 -0.001397 -0.165179 0 255 0
0.017997 0.748159 0.387209 76 153 0
-0.078715 -0.253350 -0.139593 76 0 153
-0.557914 -0.253350 0.088540 76 0 153
-0.061622 0.351501 0.002327 76 153 0
0.189423 -0.151254 -0.015696 76 0 153
0.384060 -0.253350 -0.158675 76 0 153
0.034033 0.140259 -0.039625 153 0 76
-0.152036 0.036007 -0.038570 153 0 76
-0.054206 -0.214858 -0.384043 76 0 153
-0.061226 0.959529 0.224177 76 153 0
0.243372 -0.167055 -0.264931 76 0 153
0.469166 -0.199494 0.051869 153 76 0
-0.077546 0.054328 -0.025862 76 153 0
0.422991 -0.253350 -0.151177 76 0 153
0.623094 -0.253350 -0.027802 76 0 153
0.116340 -0.151254 0.151792 76 0 153
-0.698389 -0.151254 -0.112967 76 0 153
-0.499186 0.044780 -0.000631 127 127 0
-0.172583 -0.175444 0.055384 153 0 76
-0.165132 -0.253350 0.095557 76 0 153
0.707438 -0.180108 -0.116267 76 0 153
-0.111087 -0.175444 0.099546 153 0 76
-0.370741 0.005306 0.026363 127 127 0
0.355506 -0.151254 0.071515 76 0 153
0.291830 -0.151254 -0.120051 76 0 153
-0.436936 -0.151254 0.182795 76 0 153
-0.050134 -0.175444 -0.028911 153 0 76
-0.001297 0.341833 0.011637 76 153 0
0.498333 -0.140226 -0.063763 153 76 0
-0.624094 -0.003686 -0.099632 127 127 0
0.091400 -0.179597 -0.363981 76 0 153
-0.662067 -0.253350 0.045979 76 0 153
-0.036513 0.646986 0.477292 204 51 127
0.004651 0.181363 -0.078423 76 153 0
0.358035 -0.151254 -0.030218 76 0 153
0.668920 -0.151254 -0.036836 76 0 153
-0.075644 -0.092162 -0.175125 153 0 76
-0.039005 0.310620 -0.088081 76 153 0
-0.086961 -0.175444 -0.097557 153 0 76
-0.176005 -0.096497 -0.078554 153 0 76
-0.078110 0.122294 -0.028857 76 153 0
0.149654 -0.253350 -0.294433 76 0 153
-0.304107 -0.151254 0.041432 76 0 153
-0.126771 -0.058208 -0.008165 153 0 76
-0.227357 -0.151254 0.123646 76 0 153
-0.136650 -0.175444 -0.206024 153 0 76
-0.084183 -0.175444 -0.171857 153 0 76
0.037958 0.036619 0.069774 153 0 76
-0.608751 -0.253350 -0.081115 76 0 153
-0.161226 -0.151254 -0.126334 76 0 153
0.577195 0.014227 0.061336 0 255 0
-0.320217 -0.253350 0.132068 76 0 153
-0.048288 0.398607 0.014762 76 153 0
-0.431754 -0.124884 -0.056430 76 0 153
-0.240458 -0.214612 -0.312993 76 0 153
-0.152376 -0.101728 -0.030925 153 0 76
0.187358 -0.129990 0.079859 153 0 76
0.454897 -0.237814 0.050060 153 76 0
0.496288 -0.230228 -0.105848 153 76 0
-0.015134 -0.121504 -0.087555 76 153 0
-0.157095 -0.151254 0.107391 76 0 153
0.615992 -0.253350 -0.197028 76 0 153
-0.043471 0.620636 0.012343 76 153 0
0.427835 -0.151254 0.004643 76 0 153
-0.172034 -0.137518 -0.225244 153 0 76
-0.081323 0.667291 -0.027074 76 153 0
0.619467 -0.179552 -0.231412 76 0 153
-0.114143 -0.175444 -0.046103 153 0 76
0.294128 -0.253350 -0.122641 76 0 153
-0.128598 -0.101728 0.006004 153 0 76
-0.065285 -0.253350 0.190232 76 0 153
-0.087564 -0.151254 0.110185 76 0 153
0.209447 -0.183027 0.222488 76 0 153
-0.105977 -0.151254 0.185448 76 0 153
0.524462 0.029329 0.012131 0 255 0
0.515378 -0.115263 -0.002444 153 76 0
-0.004522 -0.253350 0.169586 76 0 153
0.155301 -0.127907 -0.191152 153 0 76
0.167721 -0.189809 -0.325045 76 0 153
-0.632831 0.019325 -0.129584 127 127 0
0.008522 -0.005290 0.086575 153 0 76
0.406454 0.026186 -0.056903 0 255 0
-0.021790 0.438535 0.013975 76 153 0
-0.059059 -0.151254 -0.119260 76 0 153
-0.368627 0.004203 0.060803 127 127 0
0.473975 -0.151254 0.068737 76 0 153
-0.002668 -0.101728 0.087896 153 0 76
-0.076580 0.174242 -0.011444 76 153 0
0.200187 -0.175444 0.011316 153 0 76
-0.683750 -0.194187 -0.142374 76 0 153
0.194575 -0.126194 0.022253 153 0 76
0.233560 -0.151254 -0.092153 76 0 153
0.192958 -0.253350 0.225095 76 0 153
-0.456812 -0.151254 -0.134549 76 0 153
-0.574963 -0.151254 -0.105967 76 0 153
0.032377 -0.253350 0.275723 76 0 153
-0.410422 -0.253350 -0.186581 76 0 153
0.441229 -0.151254 0.170747 76 0 153
-0.202024 -0.109605 -0.042487 153 0 76
0.219095 -0.253350 0.102106 76 0 153
0.172030 -0.253350 0.016146 76 0 153
0.044044 -0.151254 -0.034702 76 0 153
0.506794 -0.126878 -0.097522 153 76 0
-0.203141 -0.151254 0.100563 76 0 153
0.046150 -0.209462 0.306794 76 0 153
0.325159 -0.253350 -0.000381 76 0 153
0.404110 -0.253350 0.084364 76 0 153
0.073722 -0.063003 -0.097014 153 0 76
-0.072245 0.321672 -0.060176 76 153 0
-0.686836 -0.253350 0.021589 76 0 153
-0.256503 -0.253350 -0.090409 76 0 153
-0.063611 -0.151254 0.072834 76 0 153
-0.661123 -0.253350 -0.108662 76 0 153
0.098884 -0.054019 -0.026481 153 0 76
-0.459326 -0.253350 0.186302 76 0 153
-0.048698 -0.048865 -0.079326 153 0 76
-0.011800 -0.253350 -0.029714 76 0 153
-0.062335 0.894874 0.378425 76 153 0
-0.206577 -0.253350 -0.253014 76 0 153
0.239278 -0.151254 0.202026 76 0 153
-0.686407 -0.151254 0.046739 76 0 153
-0.212333 -0.253350 -0.282979 76 0 153
0.570318 -0.253350 -0.018408 76 0 153
0.551837 -0.151254 0.114910 76 0 153
-0.029372 0.317672 0.018570 76 153 0
0.040154 -0.057685 -0.107435 153 0 76
-0.526385 0.033776 -0.050871 127 127 0
0.517568 -0.253350 -0.195297 76 0 153
-0.050557 -0.175444 -0.147087 153 0 76
-0.013159 0.210259 -0.083024 76 153 0
0.366648 -0.253350 0.167410 76 0 153
0.406058 -0.214758 -0.074483 153 76 0
-0.199379 -0.175116 0.269735 76 0 153
-0.099841 -0.151254 0.141839 76 0 153
-0.390660 -0.151254 0.112437 76 0 153
-0.570740 -0.151254 0.176790 76 0 153
-0.036294 -0.151254 -0.159416 76 0 153
0.011157 0.879411 0.220141 76 153 0
-0.408017 -0.151254 -0.101711 76 0 153
-0.712447 -0.178430 0.007017 76 0 153
-0.073430 0.887818 0.146579 76 153 0
-0.054731 0.010634 0.089164 153 0 76
-0.451105 -0.253350 0.114955 76 0 153
0.059437 -0.175444 0.066066 153 0 76
-0.053515 -0.253350 0.063590 76 0 153
0.072884 -0.253350 -0.072983 76 0 153
-0.179106 -0.175444 -0.002025 153 0 76
0.634140 -0.253350 -0.163354 76 0 153
0.141331 -0.151254 0.221166 76 0 153
-0.088574 -0.151254 -0.055234 76 0 153
0.025203 0.644510 -0.044618 76 153 0
-0.117431 -0.175444 -0.147538 153 0 76
0.356692 -0.253350 0.062585 76 0 153
0.410028 0.018345 0.100457 0 255 0
0.665857 -0.179278 0.122536 76 0 153
0.681330 -0.151254 0.069438 76 0 153
0.099260 -0.224555 0.290451 76 0 153
-0.228566 -0.122357 0.014644 153 0 76
0.563414 -0.253350 -0.160357 76 0 153
-0.217338 -0.122461 -0.114260 153 0 76
0.451817 -0.052657 -0.033494 0 255 0
0.688682 -0.253350 -0.089336 76 0 153
-0.504940 -0.253350 -0.094364 76 0 153
0.064768 -0.151254 -0.104462 76 0 153
-0.423045 -0.195997 0.184646 76 0 153
-0.001912 -0.175444 0.088227 153 0 76
-0.562980 -0.238542 -0.068949 76 0 153
0.100490 -0.151254 -0.009761 76 0 153
-0.317143 -0.151254 0.159067 76 0 153
-0.255480 -0.143438 -0.110215 153 0 76
0.009096 0.811067 0.349797 76 153 0
0.592157 -0.253350 -0.140433 76 0 153
0.340611 -0.253350 -0.187613 76 0 153
-0.023377 -0.253350 -0.308949 76 0 153
-0.486096 -0.253350 0.032682 76 0 153
0.018925 0.433657 -0.054076 76 153 0
-0.291731 -0.151254 0.110547 76 0 153
0.429630 -0.114226 -0.004553 153 76 0
0.029392 -0.125445 0.182792 153 0 76
-0.090903 -0.060629 0.059477 153 0 76
-0.154275 -0.065413 -0.028081 153 0 76
0.173425 -0.151254 -0.241408 76 0 153
0.552341 -0.253350 0.164309 76 0 153
0.020680 0.902884 0.163322 76 153 0
-0.591196 0.029338 0.081960 127 127 0
0.000215 0.120815 -0.112376 153 0 76
0.012380 -0.151254 0.230935 76 0 153
-0.005801 -0.151254 -0.138112 76 0 153
-0.285316 -0.163408 0.205263 76 0 153
0.447877 -0.102799 -0.044055 153 76 0
0.397934 -0.240811 -0.059507 153 76 0
0.465726 -0.253350 0.026675 76 0 153
0.385536 -0.253350 -0.188842 76 0 153
0.552940 -0.179363 -0.022370 153 76 0
0.199509 -0.253350 -0.032982 76 0 153
-0.110141 -0.101728 0.061225 153 0 76
-0.106320 -0.054380 -0.067062 153 0 76
-0.088106 -0.122144 0.165107 153 0 76
-0.171933 -0.151254 0.074127 76 0 153
0.004304 0.243212 -0.078642 76 153 0
0.380904 0.019127 -0.105912 0 255 0
-0.067974 0.284849 0.001243 76 153 0
0.256262 -0.253350 -0.012207 76 0 153
-0.036939 0.964041 0.281557 76 153 0
-0.060137 -0.117793 -0.222419 153 0 76
0.413577 -0.151254 0.047559 76 0 153
0.393216 -0.213877 -0.013775 153 76 0
-0.042909 -0.175444 0.098549 153 0 76
0.683163 -0.253350 -0.020178 76 0 153
0.435466 -0.135633 -0.052734 153 76 0
-0.509396 -0.253350 0.190187 76 0 153
0.059151 -0.175444 -0.017982 153 0 76
0.025850 0.253643 -0.034778 76 153 0
-0.246409 -0.247667 -0.308218 76 0 153
-0.003553 0.878258 -0.034586 76 153 0
0.025418 0.596207 -0.026891 76 153 0
0.098772 -0.097985 -0.046150 153 0 76
0.021005 0.352836 -0.011983 76 153 0
-0.055195 0.868885 0.244178 76 153 0
0.468469 -0.151254 -0.266264 76 0 153
-0.071545 0.926234 0.307864 76 153 0
-0.223431 -0.253350 0.152945 76 0 153
-0.158182 -0.253350 0.233926 76 0 153
-0.497842 -0.117585 0.024151 76 0 153
0.043593 -0.180342 0.307467 76 0 153
-0.266768 -0.253350 0.111591 76 0 153
0.611020 -0.253350 0.029347 76 0 153
0.015799 -0.253350 -0.353229 76 0 153
0.541148 0.021658 0.034185 0 255 0
-0.063403 0.800182 0.012185 76 153 0
0.074958 -0.112835 0.118767 153 0 76
-0.258711 -0.253350 -0.193223 76 0 153
0.544171 -0.176043 -0.266981 76 0 153
-0.169151 -0.253350 -0.053637 76 0 153
-0.210123 -0.253350 -0.026102 76 0 153
-0.116162 -0.175444 -0.010031 153 0 76
-0.449187 -0.109651 -0.039156 76 0 153
0.212188 -0.151254 -0.265218 76 0 153
-0.046088 -0.151254 -0.253811 76 0 153
-0.012712 -0.175444 -0.248680 153 0 76
0.121234 -0.151254 0.074868 76 0 153
-0.109020 -0.014815 0.062649 153 0 76
-0.101236 -0.104504 0.117497 153 0 76
0.001110 -0.253350 -0.162438 76 0 153
0.195052 -0.253350 -0.209570 76 0 153
-0.061665 0.741427 0.370626 76 153 0
0.475236 -0.253350 -0.243014 76 0 153
0.010794 0.851639 0.045216 76 153 0
-0.231410 -0.151254 0.047739 76 0 153
-0.470492 -0.067035 -0.031413 76 0 153
-0.683260 -0.253350 -0.009751 76 0 153
0.051633 -0.151254 0.086341 76 0 153
-0.061831 0.671956 0.374298 153 0 76
-0.472860 0.005882 -0.067893 127 127 0
0.121651 -0.225344 -0.351488 76 0 153
-0.219779 -0.124955 0.070712 153 0 76
-0.189677 -0.175444 -0.037812 153 0 76
0.580496 -0.253350 -0.190097 76 0 153
-0.514385 -0.233579 0.049037 76 0 153
-0.048833 -0.227378 0.313765 76 0 153
-0.208758 -0.175444 -0.115416 153 0 76
-0.070449 0.254576 -0.001638 76 153 0
-0.099899 -0.200841 0.307272 76 0 153
-0.049891 -0.253350 -0.239202 76 0 153
-0.081751 0.913419 0.212054 76 153 0
0.667034 -0.253350 -0.127201 76 0 153
0.022422 0.526941 -0.034070 76 153 0
0.128308 -0.175444 -0.153032 153 0 76
0.367198 -0.253350 0.116532 76 0 153
-0.204944 -0.188131 -0.337104 76 0 153
-0.352832 -0.238575 0.178612 76 0 153
0.524721 -0.170728 0.205796 76 0 153
0.008646 -0.151254 0.180822 76 0 153
-0.312606 -0.151254 -0.098808 76 0 153
-0.262793 -0.151254 -0.248665 76 0 153
0.026834 -0.151254 0.029495 76 0 153
0.094654 0.006875 -0.001667 153 0 76
0.042465 0.726758 0.379605 204 51 127
-0.569624 0.005758 0.110251 127 127 0
-0.613949 -0.180753 -0.214764 76 0 153
-0.328056 -0.253350 0.025941 76 0 153
-0.662091 -0.151254 0.029523 76 0 153
0.017862 0.940202 0.275091 76 153 0
-0.319019 -0.253350 -0.216401 76 0 153
-0.412333 -0.212436 -0.031397 76 0 153
0.523256 -0.253350 0.046721 76 0 153
0.017402 0.324566 -0.064556 76 153 0
0.634502 -0.174855 0.153907 76 0 153
0.355324 -0.197667 -0.247279 76 0 153
0.334043 -0.253350 -0.141478 76 0 153
-0.591997 -0.242540 -0.227372 76 0 153
-0.224792 -0.151254 -0.060725 76 0 153
-0.078578 0.516008 -0.038644 76 153 0
-0.024096 0.970721 0.109075 76 153 0
-0.074857 -0.069951 0.089855 153 0 76
-0.042733 0.940754 0.333788 76 153 0
-0.031704 0.872943 0.416007 76 153 0
0.093093 -0.151254 0.045979 76 0 153
-0.154549 -0.175444 -0.113615 153 0 76
-0.061373 -0.055696 -0.117690 153 0 76
-0.447700 -0.253350 -0.101679 76 0 153
0.601547 -0.162575 0.177101 76 0 153
0.395314 -0.151254 -0.196804 76 0 153
0.022278 -0.051112 -0.080441 153 0 76
0.496793 0.033776 0.013803 0 255 0
-0.252757 -0.151254 -0.055489 76 0 153
0.340046 -0.151254 -0.052867 76 0 153
0.003248 0.171679 0.009129 76 153 0
0.018438 0.885600 0.295174 76 153 0
-0.415482 -0.253350 0.174962 76 0 153
-0.379881 -0.151254 -0.191827 76 0 153
-0.228669 -0.151254 -0.126958 76 0 153
-0.291306 -0.151254 0.146277 76 0 153
-0.481572 -0.120997 -0.085875 76 0 153
0.448341 0.033776 0.014232 0 255 0
-0.637452 -0.226778 -0.197246 76 0 153
-0.025032 0.970740 0.188634 76 153 0
0.006072 0.648943 0.007084 76 153 0
0.320797 -0.172093 0.180408 76 0 153
0.097835 -0.253350 0.254644 76 0 153
-0.018902 -0.152000 -0.088228 76 153 0
0.541456 -0.125465 -0.032260 153 76 0
-0.370039 -0.253350 -0.229420 76 0 153
0.441572 -0.151254 -0.148819 76 0 153
-0.002486 -0.253350 -0.199715 76 0 153
0.429899 -0.151254 -0.077009 76 0 153
-0.147646 -0.132298 -0.241580 153 0 76
-0.053075 0.768877 0.339277 204 51 127
-0.169399 -0.175444 -0.202606 153 0 76
-0.013585 -0.179821 0.314147 76 0 153
-0.152531 -0.085896 0.039406 153 0 76
-0.404402 -0.151254 -0.020537 76 0 153
0.234067 -0.151254 0.031647 76 0 153
-0.096279 0.077779 0.051545 153 0 76
-0.138351 -0.038332 -0.098520 153 0 76
-0.095387 -0.151254 -0.241099 76 0 153
0.050849 0.089098 -0.104253 153 0 76
-0.414077 -0.253350 -0.123698 76 0 153
-0.054273 -0.151254 -0.066312 76 0 153
-0.185337 -0.253350 0.121185 76 0 153
-0.035799 -0.101728 -0.126975 153 0 76
-0.070873 0.626603 -0.002216 76 153 0
0.381314 -0.151254 0.096935 76 0 153
-0.194780 -0.109345 0.017527 153 0 76
-0.072531 0.828874 -0.048014 76 153 0
-0.120803 -0.253350 -0.149224 76 0 153
0.174739 -0.124367 -0.109821 153 0 76
0.498133 -0.253350 -0.080909 76 0 153
-0.067327 0.471682 -0.072610 76 153 0
0.025301 -0.175444 -0.049116 153 0 76
0.151517 -0.176414 0.265040 76 0 153
0.543680 -0.219184 -0.267117 76 0 153
0.497203 -0.074243 -0.011462 153 76 0
-0.128910 0.036168 0.037066 153 0 76
-0.377515 -0.151254 -0.163228 76 0 153
-0.292925 -0.217538 -0.279471 76 0 153
-0.215554 -0.151254 -0.153921 76 0 153
0.463130 -0.169980 0.051453 153 76 0
-0.012306 0.625167 0.012246 76 153 0
0.127662 -0.151841 -0.217899 153 0 76
0.520133 0.034200 -0.014757 0 255 0
0.024831 0.198685 -0.022778 76 153 0
-0.041100 -0.253350 0.112325 76 0 153
-0.146488 -0.175444 -0.151407 153 0 76
-0.031071 0.809316 0.338579 76 153 0
-0.064831 -0.109611 -0.001032 76 153 0
-0.029851 0.947426 0.034060 76 153 0
0.690846 -0.151254 0.012106 76 0 153
0.324533 0.030763 -0.122762 0 255 0
-0.083898 0.119387 0.026682 153 0 76
0.529029 -0.253350 -0.066700 153 76 0
0.053420 -0.151254 -0.193293 76 0 153
-0.027155 -0.151254 0.277389 76 0 153
-0.134206 -0.151254 0.072992 76 0 153
0.142617 -0.175444 -0.092367 153 0 76
-0.008706 -0.101728 -0.033282 153 0 76
-0.576719 -0.151254 0.072853 76 0 153
0.098938 -0.194879 0.290573 76 0 153
0.001228 0.809362 -0.066205 76 153 0
0.136857 -0.253350 0.051892 76 0 153
-0.433901 0.022871 -0.002757 127 127 0
0.105342 -0.151254 -0.285517 76 0 153
-0.054977 -0.101728 -0.062427 153 0 76
0.362790 -0.151254 0.125450 76 0 153
0.077020 0.038542 -0.100446 153 0 76
0.014322 0.519109 -0.062814 76 153 0
-0.321023 -0.241345 0.186700 76 0 153
0.094742 -0.175444 -0.132258 153 0 76
-0.251161 -0.253350 0.146776 76 0 153
0.597904 -0.216091 0.179276 76 0 153
-0.110444 0.110112 0.003202 153 0 76
-0.047174 0.965127 0.095327 76 153 0
-0.091368 -0.151254 0.004888 76 0 153
0.450305 -0.253350 -0.024509 153 76 0
-0.102561 -0.253350 0.028261 76 0 153
0.193300 -0.175444 -0.112950 153 0 76
-0.073588 -0.151862 0.311563 76 0 153
0.548447 -0.151254 -0.075956 76 0 153
0.206950 -0.209819 -0.294825 76 0 153
0.480458 -0.101073 -0.045293 153 76 0
0.079286 -0.175444 -0.108916 153 0 76
-0.067910 -0.151254 -0.345922 76 0 153
-0.526657 0.036633 -0.019322 127 127 0
0.442905 -0.253350 0.131568 76 0 153
-0.592496 -0.151254 -0.020151 76 0 153
-0.315871 -0.253350 -0.020284 76 0 153
-0.120924 -0.253350 -0.088192 76 0 153
-0.016801 0.149574 -0.083735 153 0 76
0.392048 -0.182608 -0.034533 153 76 0
0.246486 -0.195393 -0.263175 76 0 153
0.536025 -0.253350 -0.155851 76 0 153
0.424344 0.024921 0.062045 0 255 0
-0.177980 -0.151254 -0.093959 76 0 153
-0.526145 0.019454 0.030848 127 127 0
0.048413 -0.151254 0.116546 76 0 153
0.093776 -0.175444 -0.205873 153 0 76
0.100439 -0.109472 0.088789 153 0 76
-0.245603 -0.151254 -0.005730 76 0 153
0.715375 -0.228804 0.024601 76 0 153
-0.047911 0.102714 0.059082 153 0 76
0.018999 0.695387 -0.062455 76 153 0
-0.268308 -0.151254 -0.177456 76 0 153
0.069110 -0.151254 -0.269469 76 0 153
0.261944 -0.151254 0.017768 76 0 153
-0.078125 0.894952 0.328084 76 153 0
0.065735 -0.151254 0.263482 76 0 153
-0.086676 0.697343 0.357856 204 51 127
0.055926 0.003211 -0.130889 153 0 76
-0.113559 -0.222203 -0.374251 76 0 153
-0.674329 -0.152121 0.101149 76 0 153
-0.111234 -0.253350 0.200632 76 0 153
0.314961 -0.253350 -0.031238 76 0 153
0.509199 -0.151254 0.066729 76 0 153
0.011259 -0.151254 -0.092173 76 0 153
-0.320299 -0.166325 -0.268284 76 0 153
0.008260 0.767338 0.370583 76 153 0
-0.034161 -0.022791 -0.084495 76 153 0
0.010879 0.750347 0.003482 76 153 0
0.316194 -0.253350 0.037879 76 0 153
-0.013494 -0.152135 0.209125 153 0 76
-0.079256 0.492815 -0.052759 76 153 0
-0.021116 -0.043302 -0.162168 153 0 76
0.022422 -0.003759 -0.032052 76 153 0
-0.501348 -0.133619 -0.071570 76 0 153
0.002676 0.228835 0.009510 76 153 0
-0.422954 0.008127 -0.181874 127 127 0
-0.042553 0.593004 -0.083159 76 153 0
-0.242809 -0.175444 -0.033983 153 0 76
-0.047173 -0.151254 0.051239 76 0 153
0.481636 0.001033 -0.019968 0 255 0
-0.102323 0.111871 -0.085405 153 0 76
0.022421 -0.050272 -0.037889 76 153 0
0.179292 -0.175444 -0.058701 153 0 76
0.460202 -0.151254 0.120817 76 0 153
-0.021184 0.734282 0.481033 204 51 127
0.099464 -0.253350 -0.323697 76 0 153
-0.555995 0.032257 0.092190 127 127 0
-0.522446 -0.149861 -0.011403 76 0 153
0.045504 -0.253350 -0.121509 76 0 153
0.022348 0.847508 -0.000550 76 153 0
0.077812 -0.253350 0.219395 76 0 153
0.064470 -0.253350 -0.182313 76 0 153
0.488631 -0.151254 -0.133757 76 0 153
0.299590 -0.151254 -0.025757 76 0 153
-0.057555 0.213034 0.005559 76 153 0
-0.133183 -0.101728 -0.105672 153 0 76
-0.522400 -0.253350 -0.181445 76 0 153
-0.337347 -0.253350 -0.244364 76 0 153
0.014804 0.803088 0.003871 76 153 0
-0.465539 0.043595 -0.039434 127 127 0
-0.449151 0.000343 -0.119344 127 127 0
-0.126316 -0.151254 -0.085513 76 0 153
-0.029969 0.549090 -0.088990 76 153 0
-0.019860 -0.151254 -0.005632 76 0 153
-0.071600 0.623301 -0.067455 76 153 0
0.150958 -0.253350 -0.257579 76 0 153
-0.064986 -0.050672 0.022230 153 0 76
0.375508 0.001643 0.103929 0 255 0
-0.020997 -0.127054 -0.273467 153 0 76
-0.028016 0.655875 0.354529 204 51 127
0.189559 -0.127892 -0.139698 153 0 76
-0.531835 -0.151254 0.043606 76 0 153
0.254527 -0.151254 -0.183449 76 0 153
-0.687395 -0.151254 -0.064797 76 0 153
0.066879 -0.253350 -0.014850 76 0 153
0.015463 0.947076 0.098498 76 153 0
-0.173881 -0.253350 -0.248063 76 0 153
0.071981 0.076199 -0.084010 153 0 76
0.059454 -0.151254 -0.078036 76 0 153
-0.508074 -0.134148 0.050544 76 0 153
0.174413 -0.208618 0.250320 76 0 153
-0.142632 -0.010845 -0.090117 153 0 76
0.530940 -0.151254 -0.249872 76 0 153
0.017705 -0.173652 0.311480 76 0 153
0.039377 -0.101728 -0.138326 153 0 76
0.668381 -0.151254 -0.141641 76 0 153
0.020306 0.834508 0.364898 76 153 0
-0.156545 -0.253350 -0.004278 76 0 153
0.364213 -0.174203 0.184545 76 0 153
0.014257 -0.175444 -0.123802 153 0 76
0.697380 -0.236900 0.074087 76 0 153
-0.631116 -0.253350 0.004228 76 0 153
-0.642134 -0.151254 -0.097041 76 0 153
0.459335 0.003051 -0.000851 0 255 0
0.135243 -0.105290 -0.078113 153 0 76
-0.232759 -0.151254 0.193407 76 0 153
-0.172904 -0.151254 0.043722 76 0 153
-0.249922 -0.151254 0.151073 76 0 153
0.354996 -0.248038 -0.247194 76 0 153
-0.117838 -0.124882 -0.230706 153 0 76
-0.529857 -0.126226 -0.091071 76 0 153
0.021721 0.024138 -0.057571 76 153 0
-0.048770 0.758744 0.016501 76 153 0
-0.030821 -0.175444 0.072724 153 0 76
0.000077 -0.112990 0.006514 76 153 0
0.171434 -0.253350 0.134369 76 0 153
-0.091093 -0.101728 -0.022409 153 0 76
-0.596822 -0.151254 -0.052607 76 0 153
-0.120333 -0.043598 -0.122603 153 0 76
0.068802 -0.175444 -0.196212 153 0 76
-0.019786 -0.228118 -0.384983 76 0 153
0.147118 -0.175444 0.093519 153 0 76
0.604755 -0.151254 -0.161942 76 0 153
-0.254130 -0.253350 -0.143735 76 0 153
-0.060403 0.071739 0.003640 76 153 0
0.039526 -0.057006 0.040001 153 0 76
0.030171 -0.253350 -0.280757 76 0 153
-0.666362 -0.236021 -0.167180 76 0 153
-0.648430 -0.187893 -0.187051 76 0 153
0.537949 -0.150515 0.018597 153 76 0
-0.095139 -0.175416 -0.378657 76 0 153
-0.037879 -0.101728 -0.097840 153 0 76
0.120758 -0.253350 -0.007969 76 0 153
-0.096112 0.715855 0.438064 204 51 127
0.013756 -0.128173 -0.070114 76 153 0
-0.002127 0.116398 -0.078564 76 153 0
-0.590671 0.030053 -0.074589 127 127 0
0.692037 -0.183361 -0.150591 76 0 153
0.124769 -0.151254 -0.097872 76 0 153
-0.406727 -0.253350 0.022236 76 0 153
-0.035679 -0.101728 0.022073 153 0 76
-0.125573 -0.151254 -0.190730 76 0 153
-0.428414 -0.173689 -0.248385 76 0 153
0.136581 -0.101670 -0.032824 153 0 76
-0.592962 -0.253350 -0.055910 76 0 153
-0.253593 -0.253350 -0.000401 76 0 153
-0.034616 0.139303 0.013930 76 153 0
0.055122 -0.101728 0.012012 153 0 76
0.017927 0.937936 0.210970 76 153 0
-0.551502 -0.253350 0.047546 76 0 153
-0.313794 -0.151254 -0.228503 76 0 153
-0.510158 -0.073955 -0.052724 76 0 153
-0.119323 0.107389 -0.052293 153 0 76
-0.078295 0.192269 -0.030897 76 153 0
0.483773 -0.129588 0.014518 153 76 0
0.291235 -0.151254 0.131814 76 0 153
-0.082975 -0.066823 -0.147994 153 0 76
-0.158656 -0.191936 -0.359609 76 0 153
-0.068480 0.762272 -0.070099 76 153 0
0.166448 -0.253350 0.225957 76 0 153
0.030646 0.659123 0.451829 204 51 127
-0.008049 -0.151254 0.045571 76 0 153
0.683182 -0.203666 0.099031 76 0 153
-0.013266 -0.076683 -0.167798 153 0 76
-0.208185 -0.253350 -0.164100 76 0 153
-0.203049 -0.253350 0.227873 76 0 153
0.546132 -0.253350 -0.099196 76 0 153
-0.052230 0.704771 0.334057 204 51 127
-0.475383 -0.034141 -0.040532 127 127 0
-0.040306 0.373441 0.013282 76 153 0
-0.127158 -0.151254 -0.277892 76 0 153
-0.306837 -0.253350 -0.120366 76 0 153
0.023442 0.199575 -0.052550 76 153 0
0.019651 -0.151254 -0.328011 76 0 153
-0.040891 0.724888 0.017036 76 153 0
0.010226 -0.151254 -0.244346 76 0 153
-0.036888 -0.088803 0.115072 153 0 76
0.346910 -0.253350 0.098670 76 0 153
0.231406 -0.151254 0.148194 76 0 153
-0.056546 0.915839 -0.002002 76 153 0
0.013487 0.385905 -0.063829 76 153 0
0.126138 -0.253350 -0.214925 76 0 153
0.086980 -0.094473 0.019192 153 0 76
-0.216197 -0.175444 0.068447 153 0 76
-0.175338 -0.175444 0.156293 153 0 76
-0.127039 -0.253350 -0.215027 76 0 153
-0.193605 -0.244256 0.272710 76 0 153
-0.011979 -0.008717 -0.082612 76 153 0
0.038348 -0.175444 -0.211297 153 0 76
-0.518653 -0.102768 -0.041902 76 0 153
-0.262368 -0.151020 -0.085969 153 0 76
-0.190958 -0.151254 0.020137 76 0 153
0.025925 0.915469 0.265107 76 153 0
-0.057985 -0.176054 -0.383854 76 0 153
-0.077276 0.739877 0.416550 76 153 0
0.283882 -0.178392 0.185143 76 0 153
0.193386 -0.253350 0.034771 76 0 153
-0.003510 0.923413 0.357783 76 153 0
-0.393314 -0.151254 0.016621 76 0 153
0.207166 -0.253350 -0.179581 76 0 153
0.442301 0.032428 -0.056037 0 255 0
0.707005 -0.223413 0.051646 76 0 153
0.023974 -0.151254 0.091755 76 0 153
0.432966 -0.231032 0.205490 76 0 153
0.335885 -0.151254 0.038577 76 0 153
0.657105 -0.151254 -0.184755 76 0 153
-0.036255 -0.253350 -0.261614 76 0 153
-0.057924 -0.253350 0.134725 76 0 153
-0.037940 0.485648 -0.084033 76 153 0
0.018212 0.670114 0.415620 204 51 127
-0.476618 -0.087463 0.006476 76 0 153
-0.713458 -0.178505 -0.056364 76 0 153
-0.472907 0.000771 -0.026965 127 127 0
-0.132315 -0.253350 -0.051593 76 0 153
-0.252231 -0.165625 -0.303548 76 0 153
-0.073723 0.934416 0.065198 76 153 0
0.092621 0.007464 -0.075858 153 0 76
0.395458 -0.253350 0.163082 76 0 153
0.002627 0.035757 -0.155594 153 0 76
-0.186361 -0.113107 0.056480 153 0 76
