ply
format ascii 1.0
element vertex 1263
property float x
property float y
property float z
property uchar red
property uchar green
property uchar blue
end_header
0.184991 -0.253350 0.064586 76 0 153
-0.198963 -0.151254 0.027554 76 0 153
0.464631 0.034200 -0.064612 0 255 0
-0.580168 -0.151254 -0.101866 76 0 153
0.033312 0.715231 0.363975 204 51 127
-0.223654 -0.120667 0.011302 153 0 76
-0.060827 0.663133 0.006277 76 153 0
0.005879 0.876391 0.155526 76 153 0
0.629545 -0.253350 -0.059928 76 0 153
-0.046652 0.729948 0.477943 204 51 127
-0.663536 -0.151254 -0.095583 76 0 153
0.093998 -0.098693 -0.135554 153 0 76
-0.429892 -0.151254 0.060441 76 0 153
0.547171 -0.189883 -0.059276 153 76 0
0.024580 0.335944 -0.028206 76 153 0
-0.464839 0.037204 -0.048631 127 127 0
-0.078830 0.060609 -0.020521 76 153 0
-0.099203 -0.253350 0.255155 76 0 153
-0.084918 -0.253350 -0.166097 76 0 153
-0.055847 0.680278 0.336328 204 51 127
0.186463 -0.253350 -0.023586 76 0 153
0.159591 -0.253350 -0.253174 76 0 153
0.156246 -0.175444 -0.074234 153 0 76
0.045146 -0.151254 -0.160830 76 0 153
-0.146078 -0.068472 -0.083940 153 0 76
0.116643 -0.126960 -0.224041 153 0 76
0.024498 0.439532 -0.042823 76 153 0
-0.441210 -0.151254 -0.142624 76 0 153
-0.084939 0.691290 0.357705 204 51 127
-0.098697 0.724811 0.383753 204 51 127
-0.036440 0.053236 0.017035 76 153 0
-0.124617 -0.253350 0.186412 76 0 153
0.114356 -0.151254 -0.347167 76 0 153
-0.150464 -0.253350 -0.258539 76 0 153
-0.069751 -0.030903 -0.155343 153 0 76
-0.038745 -0.253350 -0.029658 76 0 153
-0.420611 0.031527 0.028277 127 127 0
0.010261 -0.189484 0.312623 76 0 153
0.424201 0.028833 -0.064346 0 255 0
0.394175 0.024293 -0.087577 0 255 0
-0.020026 0.294085 0.017133 76 153 0
0.025060 0.708671 -0.034281 76 153 0
0.011226 0.073171 0.000510 76 153 0
-0.095986 -0.060891 -0.142610 153 0 76
-0.025383 -0.166094 -0.023461 153 0 76
-0.619803 -0.151254 -0.119664 76 0 153
-0.314942 -0.151254 -0.032396 76 0 153
-0.071324 0.886535 0.240186 76 153 0
-0.228237 -0.124326 0.044981 153 0 76
-0.592396 -0.151254 0.044028 76 0 153
0.246571 -0.253350 -0.103355 76 0 153
-0.078648 0.428353 -0.050666 76 153 0
0.070788 -0.079917 0.066998 153 0 76
-0.714758 -0.197233 -0.013775 76 0 153
0.024493 -0.001838 -0.027639 76 153 0
0.498696 -0.154968 -0.275064 76 0 153
-0.032359 -0.227734 0.314704 76 0 153
-0.004029 -0.151254 -0.240910 76 0 153
0.161242 -0.253350 -0.180040 76 0 153
0.548791 -0.151254 0.191116 76 0 153
-0.154025 0.007777 -0.018821 153 0 76
0.383625 0.030556 0.111128 0 255 0
0.426883 -0.253350 0.042780 153 76 0
0.040639 0.662680 0.376433 204 51 127
0.089482 0.029499 0.008449 153 0 76
-0.117849 -0.244010 0.302637 76 0 153
-0.082211 -0.175444 0.099368 153 0 76
-0.042287 0.693412 0.332573 204 51 127
-0.447400 -0.253350 -0.207522 76 0 153
-0.066534 0.111208 0.001075 76 153 0
0.173018 -0.238287 0.251216 76 0 153
0.413666 -0.253350 -0.115403 76 0 153
-0.075957 0.184947 -0.012803 76 153 0
0.258575 -0.193790 -0.256942 76 0 153
0.041229 -0.253350 0.150503 76 0 153
0.220718 -0.253350 0.164551 76 0 153
-0.395184 -0.151254 -0.234812 76 0 153
-0.045627 -0.253350 -0.368361 76 0 153
-0.071103 0.328182 -0.004451 76 153 0
-0.073288 0.786336 -0.057420 76 153 0
0.700326 -0.151254 0.009958 76 0 153
-0.305816 -0.253350 0.079784 76 0 153
-0.034895 0.908014 0.388976 76 153 0
-0.492508 -0.253350 -0.235147 76 0 153
0.024860 -0.136263 -0.030465 76 153 0
-0.106446 -0.086495 -0.153383 153 0 76
-0.085352 -0.175444 -0.175757 153 0 76
0.055819 -0.030980 0.060484 153 0 76
-0.078506 0.101506 -0.019329 76 153 0
-0.024993 0.452974 0.017642 76 153 0
-0.281559 -0.253350 -0.242307 76 0 153
-0.139344 -0.126693 0.172984 153 0 76
0.298587 -0.151254 -0.029014 76 0 153
0.466540 0.033776 -0.013583 0 255 0
0.000146 0.155839 -0.007335 153 0 76
-0.624661 0.035826 -0.117074 127 127 0
0.021813 -0.086454 -0.053463 76 153 0
-0.143643 0.058229 -0.010315 153 0 76
0.383450 0.016042 0.058212 0 255 0
0.548704 -0.233072 -0.002160 153 76 0
-0.251954 -0.253350 -0.036061 76 0 153
-0.389971 -0.162127 0.177894 76 0 153
0.550029 -0.253350 0.184140 76 0 153
0.601489 -0.151254 -0.063900 76 0 153
-0.342687 -0.151254 -0.106779 76 0 153
-0.073585 -0.172129 0.205075 153 0 76
-0.676713 -0.151254 -0.034812 76 0 153
-0.032159 -0.164105 -0.088060 76 0 153
0.092003 -0.253350 -0.296182 76 0 153
-0.174530 -0.253350 0.084864 76 0 153
0.021759 0.816246 0.371289 76 153 0
0.579666 -0.151254 -0.016299 76 0 153
0.370055 -0.151254 0.070355 76 0 153
-0.528838 -0.253350 -0.189146 76 0 153
-0.080710 0.236583 -0.040491 76 153 0
0.173584 -0.151254 -0.222130 76 0 153
0.494713 -0.253350 0.134924 76 0 153
-0.617938 -0.151254 0.017267 76 0 153
-0.084699 -0.253350 -0.226767 76 0 153
-0.002501 0.507662 -0.081732 76 153 0
-0.476299 -0.151254 0.010508 76 0 153
0.446734 -0.253350 0.178506 76 0 153
0.141929 -0.175444 -0.126907 153 0 76
0.550660 -0.151254 0.073729 76 0 153
-0.364727 -0.253350 0.173040 76 0 153
-0.076077 -0.253350 0.126793 76 0 153
0.022448 -0.253350 -0.168907 76 0 153
-0.008540 -0.253350 -0.178924 76 0 153
0.083416 -0.151254 0.102658 76 0 153
-0.150271 -0.151254 0.056064 76 0 153
0.022708 -0.162196 -0.019578 76 153 0
-0.318886 -0.253350 0.090935 76 0 153
-0.078656 0.896632 0.094427 76 153 0
-0.149464 -0.253350 0.103308 76 0 153
-0.338114 -0.158787 -0.262389 76 0 153
0.069190 -0.125845 0.171736 153 0 76
0.298321 -0.253350 0.018920 76 0 153
-0.284746 -0.191896 0.205703 76 0 153
-0.319813 -0.236623 0.187183 76 0 153
0.180281 -0.175444 -0.128580 153 0 76
-0.161865 -0.175444 0.111980 153 0 76
-0.024405 0.572951 -0.088100 76 153 0
-0.026253 -0.050825 0.091946 153 0 76
-0.227801 -0.253350 -0.269455 76 0 153
-0.156562 -0.124402 -0.205012 153 0 76
0.057568 -0.151254 0.266367 76 0 153
-0.047246 0.100219 -0.084577 76 153 0
0.015317 -0.175444 0.184158 153 0 76
0.680520 -0.151254 0.090276 76 0 153
-0.036255 -0.253350 0.118796 76 0 153
-0.118578 0.053381 0.043229 153 0 76
-0.149640 -0.125146 0.150160 153 0 76
-0.430561 -0.208897 -0.248319 76 0 153
-0.267294 -0.253350 0.029479 76 0 153
0.471511 -0.238811 -0.275686 76 0 153
-0.230255 -0.253350 0.179418 76 0 153
0.162710 -0.175444 -0.044843 153 0 76
-0.432666 -0.253350 -0.054525 76 0 153
0.214115 -0.253350 -0.090782 76 0 153
0.415782 -0.253350 0.016478 153 76 0
-0.483316 -0.048074 -0.048021 127 127 0
-0.171195 -0.253350 -0.044106 76 0 153
0.041449 -0.175444 -0.180052 153 0 76
-0.039665 -0.194761 -0.384769 76 0 153
-0.509261 -0.000564 -0.006335 127 127 0
-0.560942 -0.253350 -0.143364 76 0 153
-0.067609 -0.151254 -0.363443 76 0 153
0.012518 0.697119 0.371212 204 51 127
0.318186 -0.253350 0.093651 76 0 153
-0.263999 -0.253350 0.137569 76 0 153
-0.628180 -0.196594 -0.204754 76 0 153
-0.129293 0.088250 -0.007265 153 0 76
-0.532334 -0.151254 0.009774 76 0 153
-0.126377 -0.151254 0.208095 76 0 153
-0.373830 -0.253350 0.029373 76 0 153
-0.407517 -0.253350 0.094844 76 0 153
-0.714843 -0.213312 -0.015398 76 0 153
0.014545 0.443496 -0.066959 76 153 0
0.093357 -0.253350 -0.193671 76 0 153
0.171355 -0.175444 0.035386 153 0 76
-0.310578 -0.253350 0.056516 76 0 153
0.054303 -0.117522 -0.206878 153 0 76
0.007074 -0.234293 -0.383452 76 0 153
-0.216098 -0.253350 0.023968 76 0 153
0.174038 -0.122412 0.019402 153 0 76
-0.295103 -0.151254 -0.060168 76 0 153
-0.098407 -0.253350 -0.256721 76 0 153
0.675414 -0.232320 -0.176530 76 0 153
0.002292 0.680593 0.008279 76 153 0
0.440526 0.014894 0.028333 0 255 0
-0.119381 -0.125092 0.166913 153 0 76
-0.040618 -0.166094 0.012811 76 153 0
0.041798 -0.089932 -0.163968 153 0 76
-0.406850 -0.253350 -0.133477 76 0 153
-0.063611 -0.151254 0.146761 76 0 153
-0.020553 0.110867 0.017220 76 153 0
0.183151 -0.151254 -0.070658 76 0 153
-0.424065 -0.194163 0.013280 76 0 153
0.146924 -0.222808 0.267993 76 0 153
0.022860 0.664996 0.458844 204 51 127
0.391488 0.021725 0.091634 0 255 0
0.441774 -0.253350 -0.266162 76 0 153
-0.051740 -0.126960 -0.270485 153 0 76
-0.637583 0.000173 -0.102912 127 127 0
-0.372368 -0.151254 0.011651 76 0 153
0.329102 -0.151254 0.049276 76 0 153
0.488888 -0.151254 -0.122594 76 0 153
-0.003197 -0.151254 0.052658 76 0 153
-0.437880 -0.003479 -0.151136 127 127 0
-0.007819 -0.101728 -0.042992 153 0 76
0.113488 -0.253350 0.112788 76 0 153
-0.505009 0.034200 -0.042236 127 127 0
0.424935 -0.253350 -0.140261 76 0 153
-0.619340 -0.253350 -0.066855 76 0 153
0.003762 0.730284 0.473244 204 51 127
-0.062407 -0.055727 0.053273 153 0 76
-0.119558 -0.151254 0.054173 76 0 153
-0.208933 -0.175444 0.073635 153 0 76
-0.034870 -0.151254 -0.253386 76 0 153
-0.312112 -0.151254 0.169960 76 0 153
-0.532326 -0.233680 -0.247402 76 0 153
0.092548 -0.050776 0.005559 153 0 76
0.536985 -0.143998 -0.077258 153 76 0
-0.099132 -0.216874 -0.378043 76 0 153
-0.032133 -0.175444 -0.221983 153 0 76
-0.062124 0.500002 -0.075722 76 153 0
-0.508811 -0.253350 -0.064421 76 0 153
-0.557777 -0.225640 -0.076835 76 0 153
0.007037 0.338519 0.004594 76 153 0
-0.035766 0.267305 -0.087634 76 153 0
-0.444230 -0.151254 -0.105941 76 0 153
0.102261 -0.175444 0.094678 153 0 76
-0.547787 -0.157436 -0.243937 76 0 153
-0.707159 -0.227889 -0.087216 76 0 153
-0.131858 -0.156914 -0.369438 76 0 153
-0.337876 -0.151971 0.181460 76 0 153
0.005094 0.917822 0.008735 76 153 0
-0.556628 -0.151254 -0.102823 76 0 153
-0.072246 -0.253350 0.257600 76 0 153
-0.136374 -0.086735 -0.127709 153 0 76
0.309053 -0.253350 -0.189687 76 0 153
-0.046119 -0.001278 -0.085002 76 153 0
0.103766 -0.151254 0.190289 76 0 153
-0.077818 -0.064933 -0.017370 76 153 0
-0.037900 -0.239694 -0.384858 76 0 153
0.068496 -0.056384 -0.029628 153 0 76
0.137231 -0.253350 -0.147279 76 0 153
-0.548790 -0.120705 -0.013991 76 0 153
-0.572102 -0.163511 -0.044595 76 0 153
-0.567827 -0.200511 -0.237788 76 0 153
0.464527 0.016169 0.020849 0 255 0
-0.035021 -0.101728 -0.120566 153 0 76
-0.436422 -0.253350 0.088743 76 0 153
0.459002 0.034200 0.012371 0 255 0
0.010097 -0.226684 0.312648 76 0 153
0.064214 -0.151254 -0.150548 76 0 153
-0.198770 -0.253350 0.075943 76 0 153
-0.080049 0.727447 -0.025633 76 153 0
-0.530319 -0.179245 0.191988 76 0 153
0.023817 0.903143 0.255120 76 153 0
-0.485714 -0.253350 -0.152394 76 0 153
-0.498326 0.007918 -0.063283 127 127 0
0.465236 -0.253350 -0.255117 76 0 153
0.581133 -0.151254 0.146109 76 0 153
0.500543 0.015938 -0.064908 0 255 0
0.003620 -0.151254 -0.270155 153 0 76
-0.030405 0.321917 -0.088157 76 153 0
-0.003856 0.656525 0.011929 76 153 0
-0.035560 -0.151254 0.007605 76 153 0
-0.032597 0.770063 0.336108 204 51 127
0.512933 0.021186 -0.155952 0 255 0
-0.054078 0.924138 0.361838 76 153 0
0.131299 -0.151254 0.181237 76 0 153
-0.069842 -0.101728 -0.146698 153 0 76
-0.523247 -0.151254 0.116008 76 0 153
-0.480793 -0.236269 0.194983 76 0 153
-0.163176 -0.164808 -0.231498 153 0 76
0.468443 -0.151254 -0.187888 76 0 153
0.135362 -0.253350 0.237532 76 0 153
-0.068880 0.136982 0.016342 153 0 76
-0.387836 -0.245249 0.177717 76 0 153
-0.508444 -0.100795 -0.024520 76 0 153
0.083093 -0.253350 -0.261937 76 0 153
-0.075140 0.269716 -0.059291 76 153 0
-0.088176 0.723457 0.362703 204 51 127
-0.002702 0.758287 0.476564 204 51 127
0.515692 0.021816 -0.113746 0 255 0
-0.052047 0.802716 -0.074602 76 153 0
0.014102 0.943671 0.277625 76 153 0
0.113797 -0.174107 0.164701 153 0 76
-0.074270 0.943512 0.110356 76 153 0
0.008421 0.220718 0.003313 76 153 0
-0.646439 -0.253350 0.090436 76 0 153
0.101379 -0.204615 0.289649 76 0 153
0.494970 0.021166 0.016184 0 255 0
-0.019554 -0.253350 0.271440 76 0 153
0.132031 -0.253350 0.163395 76 0 153
0.136679 -0.175444 0.022542 153 0 76
0.086089 -0.165252 -0.366047 76 0 153
-0.140959 -0.061456 0.022909 153 0 76
0.698708 -0.213747 -0.137187 76 0 153
-0.210879 -0.175444 0.093877 153 0 76
-0.108674 -0.151254 -0.179027 76 0 153
-0.003554 -0.175444 0.120403 153 0 76
-0.399145 -0.151254 -0.062331 76 0 153
-0.123163 0.104098 -0.039045 153 0 76
0.020301 -0.253350 0.210943 76 0 153
-0.165136 -0.091063 0.025267 153 0 76
-0.504491 0.033776 -0.065715 127 127 0
-0.188598 -0.100754 -0.028720 153 0 76
-0.513081 -0.118606 -0.079363 76 0 153
-0.277768 -0.253350 -0.207779 76 0 153
-0.413172 -0.228574 0.181936 76 0 153
-0.097329 -0.151254 0.028467 76 0 153
0.441659 -0.151254 0.116799 76 0 153
0.187797 -0.253350 0.124877 76 0 153
-0.479808 -0.010956 -0.045537 127 127 0
0.384106 -0.002357 0.083124 0 255 0
0.130616 -0.151254 0.021109 76 0 153
0.234020 -0.151254 -0.139935 76 0 153
-0.015682 0.042670 0.016310 76 153 0
-0.053969 0.001755 0.089321 153 0 76
0.506664 0.034200 -0.032120 0 255 0
0.172234 -0.175444 0.071462 153 0 76
-0.027723 -0.253350 -0.014801 76 0 153
-0.076831 0.896619 0.160439 76 153 0
0.043772 -0.175444 -0.036055 153 0 76
-0.068257 -0.253350 0.096107 76 0 153
0.404019 -0.253350 -0.012926 153 76 0
-0.058389 0.792159 0.355226 76 153 0
-0.060113 0.846334 0.052793 76 153 0
-0.071638 0.382915 -0.005276 76 153 0
-0.046559 0.220595 -0.084835 76 153 0
-0.250821 -0.175444 -0.013724 153 0 76
0.045518 0.051155 -0.130904 153 0 76
0.124499 -0.110163 0.059213 153 0 76
0.456548 -0.163137 -0.107852 153 76 0
0.108653 -0.118610 -0.172908 153 0 76
-0.026288 0.754331 0.480851 204 51 127
0.093577 -0.175444 0.114519 153 0 76
-0.154723 -0.055106 -0.025814 153 0 76
-0.035475 -0.253350 0.044870 76 0 153
0.647116 -0.151254 -0.127991 76 0 153
-0.096715 0.748124 0.378563 204 51 127
-0.180873 -0.253350 0.107212 76 0 153
-0.474411 -0.135357 0.049809 76 0 153
-0.102470 0.066259 -0.123570 153 0 76
0.014241 0.637282 -0.003159 76 153 0
-0.107627 0.014662 0.063716 153 0 76
0.173186 -0.158045 -0.167782 153 0 76
-0.169310 -0.175444 -0.020320 153 0 76
0.372782 -0.151254 -0.183715 76 0 153
0.487801 -0.172511 0.209737 76 0 153
0.100973 -0.151254 0.015008 76 0 153
0.152608 -0.161584 -0.334958 76 0 153
-0.380898 -0.253350 -0.208929 76 0 153
0.232600 -0.253350 0.046626 76 0 153
-0.103470 -0.151254 0.079715 76 0 153
-0.341301 -0.253350 -0.202426 76 0 153
0.552650 -0.151254 0.028351 76 0 153
0.118970 -0.087046 -0.027902 153 0 76
-0.484520 0.008438 0.005805 127 127 0
0.637112 -0.151254 0.008494 76 0 153
-0.530109 -0.213648 0.042869 76 0 153
0.282053 -0.253350 -0.168948 76 0 153
-0.472696 -0.151254 -0.093442 76 0 153
-0.077433 -0.125316 -0.054124 76 153 0
-0.521011 -0.151254 0.040966 76 0 153
0.052590 0.008137 0.063099 153 0 76
-0.180076 -0.171837 -0.218732 153 0 76
0.721625 -0.151991 -0.016686 76 0 153
-0.022159 0.014268 -0.074676 76 153 0
-0.000613 -0.101728 -0.067143 76 153 0
0.437172 -0.085181 -0.041140 153 76 0
0.020987 0.773290 -0.011179 76 153 0
-0.349735 -0.253350 0.017386 76 0 153
0.015895 0.947406 0.133880 76 153 0
-0.029800 -0.253350 -0.266276 76 0 153
-0.285135 -0.151254 -0.258491 76 0 153
0.593149 -0.253350 -0.086675 76 0 153
-0.221963 -0.151254 -0.080953 76 0 153
-0.600322 -0.253350 -0.084795 76 0 153
-0.063981 -0.047503 -0.023502 153 0 76
-0.051196 -0.151254 -0.170220 76 0 153
0.014865 -0.151254 -0.161033 76 0 153
0.013313 0.095941 -0.127262 153 0 76
-0.502741 -0.015850 -0.011094 127 127 0
0.651894 -0.253350 0.049593 76 0 153
0.439174 -0.139303 0.044814 153 76 0
-0.424561 -0.253350 0.125296 76 0 153
-0.342080 -0.253350 0.165598 76 0 153
-0.169438 -0.118299 -0.164444 153 0 76
-0.571908 -0.199751 -0.011744 76 0 153
-0.064746 -0.166094 -0.050827 153 0 76
0.151758 -0.151254 0.154922 76 0 153
-0.096530 -0.175444 -0.155605 153 0 76
0.025044 0.564688 -0.036508 76 153 0
0.014136 0.693046 0.344188 204 51 127
-0.029403 -0.159083 0.209677 153 0 76
-0.275930 -0.253350 0.103302 76 0 153
-0.558348 -0.151254 -0.056364 76 0 153
0.719859 -0.237802 -0.066444 76 0 153
-0.417972 -0.181413 0.000994 76 0 153
0.707931 -0.179986 -0.114946 76 0 153
-0.369820 -0.151254 0.089777 76 0 153
-0.080884 0.871184 0.354256 76 153 0
0.213268 -0.164989 -0.061038 153 0 76
-0.322009 -0.151254 -0.076759 76 0 153
0.111294 -0.175444 0.018854 153 0 76
0.018162 0.857828 0.398152 76 153 0
0.008263 -0.047493 -0.017083 153 0 76
0.551385 -0.221920 -0.045968 153 76 0
0.098720 -0.126313 0.159199 153 0 76
0.239985 -0.154231 -0.267150 76 0 153
0.206145 -0.151254 -0.150763 76 0 153
0.349270 -0.151254 0.152929 76 0 153
0.025989 -0.145404 0.203884 76 0 153
0.098853 0.014170 -0.044585 153 0 76
-0.565745 -0.253350 -0.208531 76 0 153
-0.414544 -0.151254 0.140874 76 0 153
-0.415832 0.034948 -0.148870 127 127 0
0.269295 -0.171245 0.189224 76 0 153
-0.054604 0.128183 0.035270 153 0 76
-0.042657 0.595837 -0.086136 76 153 0
-0.292072 -0.235648 -0.279893 76 0 153
-0.158757 -0.253350 -0.237267 76 0 153
0.036106 -0.123082 -0.232595 153 0 76
-0.036548 -0.118590 -0.087508 76 153 0
0.065244 -0.101728 -0.104659 153 0 76
-0.403927 0.033404 0.046855 127 127 0
-0.006782 0.863286 -0.050735 76 153 0
0.007663 0.024867 0.004069 76 153 0
0.347643 -0.253350 0.109721 76 0 153
-0.412217 -0.145168 -0.028272 76 0 153
0.410775 -0.253350 -0.048685 153 76 0
-0.244038 -0.253350 0.200817 76 0 153
0.438178 -0.194280 0.206366 76 0 153
0.474341 -0.253350 0.158562 76 0 153
0.656380 -0.193248 0.133529 76 0 153
0.021513 0.933256 0.260120 76 153 0
-0.019365 0.009260 0.091585 153 0 76
-0.385123 0.013301 0.062259 127 127 0
-0.004746 0.019397 -0.082881 76 153 0
-0.590800 -0.151254 0.018876 76 0 153
0.700139 -0.213751 0.068795 76 0 153
-0.149966 -0.253350 0.074405 76 0 153
0.379464 0.023753 -0.106288 0 255 0
-0.605107 -0.253350 -0.119656 76 0 153
0.006046 -0.166094 -0.033123 153 0 76
-0.592199 0.013762 -0.085498 127 127 0
-0.071969 0.863152 -0.028758 76 153 0
0.585183 -0.151254 0.129372 76 0 153
0.175721 -0.189109 0.249479 76 0 153
-0.048185 -0.253350 0.233915 76 0 153
0.151235 -0.175444 -0.059208 153 0 76
0.143570 -0.153980 -0.203413 153 0 76
0.561151 -0.151254 0.178202 76 0 153
0.150132 -0.180792 0.265930 76 0 153
0.027325 0.136393 0.001749 153 0 76
-0.546143 -0.253350 -0.119182 76 0 153
-0.488564 -0.253350 0.166019 76 0 153
0.507632 -0.151254 -0.241299 76 0 153
-0.283534 -0.151254 0.162690 76 0 153
0.067957 0.083492 -0.084682 153 0 76
-0.049873 0.041473 0.013033 76 153 0
0.097687 -0.151254 -0.152763 76 0 153
-0.045671 0.082495 0.014691 76 153 0
0.296523 -0.151254 -0.208821 76 0 153
0.336932 -0.253350 0.033114 76 0 153
0.526327 -0.003292 -0.150360 0 255 0
-0.078840 0.651111 -0.020551 76 153 0
-0.027095 0.085914 0.071346 153 0 76
-0.205517 -0.124872 -0.157567 153 0 76
-0.109351 -0.083829 0.062381 153 0 76
0.617737 -0.253350 0.046949 76 0 153
-0.018167 0.438309 0.016836 76 153 0
0.310283 -0.242016 0.181022 76 0 153
-0.707734 -0.168373 -0.085071 76 0 153
-0.142456 -0.121426 0.135968 153 0 76
0.384598 -0.195619 0.190717 76 0 153
0.177789 -0.151254 0.144436 76 0 153
0.422150 -0.151254 -0.101978 76 0 153
-0.074658 0.906037 0.350312 76 153 0
-0.025856 0.137165 0.030395 153 0 76
-0.080869 0.698759 -0.033049 76 153 0
-0.010922 0.967213 0.170976 76 153 0
0.624538 -0.253350 0.160753 76 0 153
-0.582830 -0.253350 0.053211 76 0 153
0.015411 0.469394 -0.065757 76 153 0
-0.022707 -0.175444 -0.268113 153 0 76
-0.067120 -0.010405 -0.070979 76 153 0
-0.028491 -0.253350 -0.304206 76 0 153
-0.030279 0.143548 -0.088170 76 153 0
-0.122298 -0.253350 0.007848 76 0 153
0.502932 -0.151254 -0.225244 76 0 153
0.048814 -0.151254 -0.352838 76 0 153
0.070905 -0.175444 -0.168650 153 0 76
-0.041624 -0.060925 0.079685 153 0 76
0.035945 0.685098 0.442846 204 51 127
-0.268063 -0.151254 0.130288 76 0 153
0.080535 -0.253350 0.005451 76 0 153
-0.080297 -0.151254 -0.272946 153 0 76
0.330068 -0.253350 0.140158 76 0 153
-0.680603 -0.241475 -0.147221 76 0 153
0.074816 -0.175444 -0.204847 153 0 76
0.491333 -0.253350 -0.249652 76 0 153
0.385221 -0.211466 -0.257036 76 0 153
-0.268286 -0.137633 -0.025724 153 0 76
0.059702 0.107697 -0.065628 153 0 76
-0.058632 -0.139507 -0.078469 76 153 0
-0.227943 -0.253350 0.232305 76 0 153
-0.509868 -0.007521 -0.042039 127 127 0
-0.025339 0.014268 -0.020431 76 153 0
0.080068 -0.151254 0.023854 76 0 153
0.578203 -0.253350 -0.081296 76 0 153
0.023479 -0.079831 -0.161627 153 0 76
0.151853 -0.151254 -0.157402 76 0 153
-0.424875 -0.166510 -0.071970 76 0 153
-0.080483 0.414284 -0.042121 76 153 0
-0.287355 -0.151254 0.146176 76 0 153
-0.017969 -0.127018 0.208390 153 0 76
-0.111668 -0.175444 0.083055 153 0 76
0.364992 -0.253350 0.035349 76 0 153
-0.080138 -0.010278 -0.044300 76 153 0
0.643291 -0.151254 -0.191056 76 0 153
-0.676456 -0.164823 -0.153606 76 0 153
0.457928 -0.138783 -0.108070 153 76 0
-0.065882 0.732000 0.443143 76 153 0
0.025093 0.535072 -0.035575 76 153 0
0.259536 -0.151254 0.101156 76 0 153
-0.096081 0.109419 -0.096438 153 0 76
-0.007156 -0.175444 0.152672 153 0 76
-0.060734 -0.103576 0.130397 153 0 76
0.677692 -0.196251 0.107311 76 0 153
0.372363 -0.253350 -0.242552 76 0 153
-0.189388 -0.173382 0.274883 76 0 153
0.071416 -0.253350 -0.031571 76 0 153
0.024843 0.207325 -0.040341 76 153 0
-0.537121 0.023215 -0.068131 127 127 0
-0.563638 -0.151254 0.027322 76 0 153
-0.671486 -0.151254 -0.135956 76 0 153
0.025938 -0.253350 0.016793 76 0 153
0.596577 -0.191780 0.179936 76 0 153
-0.313427 -0.253350 -0.096773 76 0 153
-0.206993 -0.215653 -0.335786 76 0 153
0.045554 0.078713 -0.117327 153 0 76
-0.098186 -0.251618 0.307551 76 0 153
-0.124420 0.011433 0.047580 153 0 76
0.040657 -0.101728 0.015502 153 0 76
-0.587442 -0.236153 0.173961 76 0 153
0.023071 0.001628 0.081323 153 0 76
0.205807 -0.159378 -0.097607 153 0 76
-0.063787 0.312181 0.003819 76 153 0
0.336217 -0.253350 -0.119736 76 0 153
0.087321 -0.069460 0.032056 153 0 76
-0.137968 -0.072020 -0.104208 153 0 76
-0.284407 -0.151254 -0.200913 76 0 153
-0.055636 0.871845 0.199870 76 153 0
0.144643 -0.253350 -0.107009 76 0 153
-0.176602 -0.175444 -0.180747 153 0 76
-0.708854 -0.164047 0.025157 76 0 153
-0.206495 -0.125770 0.102767 153 0 76
-0.073898 0.943489 0.198542 76 153 0
0.019404 0.695955 0.429165 204 51 127
0.004479 0.052338 0.006662 76 153 0
0.459401 -0.103956 -0.059934 153 76 0
0.123403 -0.175444 -0.078538 153 0 76
-0.139513 -0.185622 -0.366856 76 0 153
0.097085 -0.237770 -0.361768 76 0 153
-0.653839 -0.151254 0.067149 76 0 153
-0.179896 -0.253350 0.007469 76 0 153
-0.002679 0.135769 0.027009 153 0 76
0.011077 0.782209 0.006133 76 153 0
0.604714 -0.151254 0.101844 76 0 153
-0.131883 0.001165 0.038067 153 0 76
0.453314 -0.253350 0.068584 76 0 153
-0.189389 -0.253350 -0.011042 76 0 153
-0.080844 0.891186 0.049774 76 153 0
-0.527466 -0.156880 -0.101658 76 0 153
0.542819 -0.241268 0.010941 153 76 0
-0.127015 -0.151254 0.003402 76 0 153
-0.015621 -0.151254 0.175906 76 0 153
-0.126649 -0.253350 0.032014 76 0 153
-0.482352 -0.253350 -0.016053 76 0 153
0.623741 -0.200611 0.162455 76 0 153
0.249494 -0.151254 -0.236622 76 0 153
-0.138498 -0.253350 0.274721 76 0 153
0.096392 -0.175444 -0.026193 153 0 76
0.235445 -0.151254 0.032983 76 0 153
0.548232 0.021759 0.021648 0 255 0
-0.093292 -0.051441 -0.008269 153 0 76
-0.052256 0.850915 0.426762 76 153 0
0.141565 -0.151254 -0.245496 76 0 153
0.035257 -0.175444 -0.146755 153 0 76
-0.117964 -0.151254 -0.017297 76 0 153
0.013530 -0.151254 0.233902 76 0 153
0.012892 -0.253350 0.106310 76 0 153
-0.232388 -0.253350 0.074043 76 0 153
-0.534979 -0.151254 -0.055972 76 0 153
-0.093197 -0.151254 0.295140 76 0 153
-0.100088 -0.253350 -0.049311 76 0 153
-0.448075 -0.177989 0.038301 76 0 153
-0.044343 0.026426 0.015200 76 153 0
-0.233280 -0.126682 0.077115 153 0 76
-0.143079 -0.175444 -0.153256 153 0 76
0.405056 -0.253350 0.073307 76 0 153
-0.002265 -0.056028 0.058405 153 0 76
0.095642 -0.151254 -0.044577 76 0 153
-0.183109 -0.175444 -0.117766 153 0 76
0.140360 -0.253350 -0.046836 76 0 153
0.021376 0.607727 -0.054599 76 153 0
-0.030566 -0.180284 -0.385224 76 0 153
0.029311 -0.151254 0.029737 76 0 153
-0.057670 -0.162553 0.207596 153 0 76
-0.007639 0.023080 -0.159650 153 0 76
0.180574 -0.151254 -0.090708 76 0 153
0.409462 0.030576 0.045729 0 255 0
0.264377 -0.151254 -0.205007 76 0 153
-0.166607 -0.198625 0.285966 76 0 153
0.558275 0.012991 -0.172912 0 255 0
0.326938 -0.251624 0.180404 76 0 153
-0.356833 -0.247297 -0.257352 76 0 153
0.020723 0.129951 -0.056303 76 153 0
0.080312 -0.050570 0.031442 153 0 76
-0.049089 0.719264 0.378729 76 153 0
0.566501 -0.253350 -0.006059 76 0 153
0.715454 -0.211340 -0.089804 76 0 153
-0.079619 -0.151254 0.099948 76 0 153
-0.248386 -0.126069 0.017212 153 0 76
0.022045 0.934623 0.238675 76 153 0
0.132689 -0.175444 -0.107750 153 0 76
0.047975 -0.101728 -0.108756 153 0 76
-0.051436 0.962566 0.257775 76 153 0
-0.010579 0.116484 0.049005 153 0 76
-0.538618 -0.253350 -0.148229 76 0 153
0.390575 -0.253350 -0.124599 76 0 153
0.039513 -0.175444 0.139810 153 0 76
0.089152 -0.253350 0.062328 76 0 153
-0.444818 -0.141471 0.036079 76 0 153
0.512176 -0.253350 -0.104290 153 76 0
0.000521 0.961686 0.198552 76 153 0
0.292717 -0.253350 0.104342 76 0 153
0.446317 -0.200789 -0.105059 153 76 0
-0.590833 -0.168817 0.172233 76 0 153
0.014501 0.885248 0.227092 76 153 0
-0.018218 0.926868 0.367685 76 153 0
-0.687646 -0.210868 0.079762 76 0 153
0.490793 0.026535 -0.090862 0 255 0
-0.400644 -0.253350 -0.014802 76 0 153
0.214770 -0.159911 -0.024340 153 0 76
-0.075592 0.674139 -0.012091 76 153 0
0.555270 -0.151254 0.104034 76 0 153
0.032612 -0.175444 0.036278 153 0 76
0.644096 -0.151254 -0.036377 76 0 153
-0.302295 -0.253350 -0.238477 76 0 153
0.242860 -0.151254 -0.108637 76 0 153
0.668318 -0.168903 0.119555 76 0 153
-0.298356 -0.211646 -0.277117 76 0 153
-0.094097 -0.151254 -0.199503 76 0 153
-0.079778 -0.209745 -0.381017 76 0 153
-0.142665 -0.101728 -0.016659 153 0 76
-0.335527 -0.253350 0.087271 76 0 153
-0.024214 -0.151254 0.083711 76 0 153
-0.021420 0.589710 0.017349 76 153 0
0.142689 -0.253350 -0.333856 76 0 153
0.106101 -0.087517 0.029243 153 0 76
0.269319 -0.253350 0.159588 76 0 153
-0.315120 -0.253350 -0.252891 76 0 153
0.044292 -0.253350 -0.220522 76 0 153
-0.267195 -0.157174 -0.006172 153 0 76
0.068748 0.077262 0.018814 153 0 76
0.068048 0.102934 -0.040566 153 0 76
-0.199927 -0.151254 0.155742 76 0 153
0.306383 -0.161207 0.181360 76 0 153
0.081298 -0.151254 -0.344548 76 0 153
0.016957 0.483379 -0.007114 76 153 0
-0.031601 -0.059099 0.017598 76 153 0
-0.062636 -0.101728 -0.114464 153 0 76
0.560441 0.024377 -0.159626 0 255 0
0.014293 0.523126 -0.067270 76 153 0
-0.286305 -0.151254 0.016761 76 0 153
-0.368558 -0.237339 -0.254822 76 0 153
-0.303579 -0.253350 0.150455 76 0 153
0.434434 -0.151254 -0.195106 76 0 153
-0.080506 0.887469 0.318301 76 153 0
-0.074885 0.775676 0.379166 76 153 0
-0.120015 -0.253350 -0.312649 76 0 153
0.043253 -0.175444 -0.068107 153 0 76
-0.005825 0.675038 -0.083424 76 153 0
0.008972 -0.253350 0.161431 76 0 153
-0.394469 -0.253350 -0.116127 76 0 153
-0.014401 -0.211558 0.314188 76 0 153
0.571243 -0.001730 0.046744 0 255 0
-0.534257 -0.253350 -0.229028 76 0 153
0.009348 -0.175444 -0.129110 153 0 76
0.070557 -0.101983 -0.163765 153 0 76
0.012421 -0.175444 0.131471 153 0 76
-0.552495 -0.253350 0.100657 76 0 153
0.100768 -0.253350 -0.009718 76 0 153
0.190682 -0.169675 -0.308122 76 0 153
-0.146393 -0.253350 -0.212711 76 0 153
0.474017 -0.151254 0.011598 76 0 153
-0.045110 -0.253350 -0.288845 76 0 153
-0.442790 -0.151254 0.004777 76 0 153
0.488993 -0.124287 0.034490 153 76 0
-0.232157 -0.151254 -0.128228 76 0 153
-0.597060 -0.253350 -0.223111 76 0 153
-0.056381 -0.101728 0.015014 153 0 76
-0.045266 0.718052 0.435556 76 153 0
0.016305 0.888986 -0.004724 76 153 0
-0.465014 -0.149861 -0.014408 76 0 153
-0.526970 -0.193297 -0.101910 76 0 153
-0.030579 0.190080 0.017652 76 153 0
0.075212 -0.175444 -0.002346 153 0 76
-0.212821 -0.151254 -0.124104 76 0 153
-0.035556 0.014268 -0.046513 76 153 0
-0.112576 -0.151254 0.136937 76 0 153
0.484096 -0.238731 -0.108544 153 76 0
-0.208835 -0.151254 -0.007152 76 0 153
0.020561 0.730012 -0.013771 76 153 0
0.708111 -0.195967 0.048842 76 0 153
-0.080969 0.290794 -0.035553 76 153 0
-0.040460 0.029512 -0.160038 153 0 76
-0.215875 -0.245804 -0.330077 76 0 153
0.455339 -0.253350 -0.210131 76 0 153
0.336949 -0.253350 -0.211796 76 0 153
-0.715075 -0.238267 -0.035913 76 0 153
-0.673876 -0.170932 0.101847 76 0 153
0.017779 -0.175444 -0.094162 153 0 76
-0.527051 0.008186 -0.019717 127 127 0
0.493094 -0.102005 -0.015142 153 76 0
0.210765 -0.161877 -0.076845 76 0 153
-0.123626 -0.151254 0.173685 76 0 153
0.012376 0.660642 0.370257 204 51 127
-0.325776 -0.151254 -0.184387 76 0 153
-0.557679 -0.253350 -0.060106 76 0 153
0.083381 0.040701 0.017326 153 0 76
-0.641885 0.018699 -0.115362 127 127 0
0.061988 -0.058453 0.022001 153 0 76
-0.579780 0.023896 -0.097583 127 127 0
-0.342097 -0.236643 -0.261152 76 0 153
-0.072167 0.846302 -0.037391 76 153 0
-0.047031 0.421019 -0.084654 76 153 0
0.593114 -0.253350 0.046658 76 0 153
-0.011279 0.573557 0.015095 76 153 0
0.071615 -0.151254 -0.217879 76 0 153
-0.038602 -0.151254 -0.160696 76 0 153
0.185623 -0.253350 0.009507 76 0 153
0.016691 0.316598 -0.006702 76 153 0
0.646794 -0.166617 -0.209017 76 0 153
0.127412 -0.175444 -0.008778 153 0 76
-0.053861 0.870303 -0.044645 76 153 0
-0.056597 0.956974 0.088038 76 153 0
0.427022 0.018902 0.002244 0 255 0
-0.209549 -0.253350 -0.185478 76 0 153
-0.052864 -0.175444 0.069616 153 0 76
0.215344 -0.220470 0.217664 76 0 153
-0.205445 -0.151254 0.109193 76 0 153
0.073134 -0.164964 0.299696 76 0 153
0.489513 -0.253350 0.040596 76 0 153
-0.077011 0.290858 -0.055226 76 153 0
0.021924 0.036570 0.078412 153 0 76
-0.236727 -0.238908 0.245665 76 0 153
-0.091919 -0.151254 0.218173 76 0 153
0.466888 -0.151254 -0.225134 76 0 153
-0.439007 -0.195106 0.188923 76 0 153
-0.008456 -0.151254 -0.211974 76 0 153
0.014221 0.930160 0.046900 76 153 0
-0.676003 -0.151254 -0.010443 76 0 153
-0.371081 -0.253350 -0.059541 76 0 153
-0.257978 -0.245697 0.228295 76 0 153
-0.523889 -0.253350 -0.000966 76 0 153
-0.003012 -0.101728 -0.093334 76 153 0
-0.011667 0.645351 0.454806 204 51 127
-0.093360 -0.253350 -0.189271 76 0 153
-0.422795 0.026014 0.005893 127 127 0
0.194622 -0.253350 0.226076 76 0 153
-0.279658 -0.151254 -0.144109 76 0 153
0.694488 -0.183831 0.079633 76 0 153
-0.705695 -0.174702 0.036946 76 0 153
-0.029687 0.841648 0.439296 76 153 0
0.472787 -0.230359 0.209936 76 0 153
0.202855 -0.175444 -0.049475 153 0 76
0.061836 -0.151254 -0.187576 76 0 153
-0.018552 0.850407 0.077902 76 153 0
-0.004997 -0.101728 0.015845 76 153 0
0.194425 -0.175444 -0.082414 153 0 76
0.425774 -0.253350 -0.036593 76 0 153
0.021104 -0.180273 -0.381501 76 0 153
0.201137 -0.151254 0.184082 76 0 153
-0.574475 -0.151254 0.108531 76 0 153
0.449077 0.044477 -0.045770 0 255 0
0.397832 -0.234431 -0.059242 153 76 0
0.074146 -0.062630 -0.094093 153 0 76
0.632107 -0.151254 0.140026 76 0 153
0.023552 0.322678 -0.047765 76 153 0
-0.332404 -0.253350 0.006187 76 0 153
0.167814 -0.151254 0.086665 76 0 153
0.368549 0.027162 0.097664 0 255 0
0.357116 -0.151254 0.166655 76 0 153
0.613641 -0.179564 0.169407 76 0 153
-0.022046 -0.175444 0.166741 153 0 76
0.721108 -0.244151 -0.008328 76 0 153
-0.497015 -0.209093 -0.109272 76 0 153
0.030389 -0.055740 -0.104893 153 0 76
0.039686 0.701097 0.375033 204 51 127
0.048331 -0.052837 -0.055224 153 0 76
-0.000521 0.680984 0.432103 153 0 76
-0.534222 -0.094500 -0.032992 76 0 153
-0.068680 0.426377 -0.001385 76 153 0
-0.350649 -0.213334 -0.258911 76 0 153
-0.182088 -0.151254 0.203988 76 0 153
0.004491 -0.006823 -0.158146 153 0 76
0.191450 -0.184252 0.236993 76 0 153
0.151498 -0.253350 -0.025375 76 0 153
-0.238981 -0.216425 -0.314177 76 0 153
0.200476 -0.126094 -0.035346 153 0 76
-0.163013 -0.213121 -0.357959 76 0 153
0.516178 -0.253350 0.170662 76 0 153
-0.589798 0.018900 0.071075 127 127 0
-0.137306 -0.175444 0.061393 153 0 76
0.359078 -0.253350 0.092697 76 0 153
0.478877 0.034200 -0.001454 0 255 0
0.043268 -0.151254 0.281616 76 0 153
-0.147257 0.022801 -0.076229 153 0 76
-0.034213 0.753985 0.353998 76 153 0
0.012093 -0.058390 -0.128140 153 0 76
0.486353 -0.253350 -0.096762 153 76 0
-0.511179 -0.151254 0.088521 76 0 153
0.084532 -0.151254 0.071875 76 0 153
-0.029214 -0.151254 -0.138226 76 0 153
-0.663703 -0.194748 -0.170463 76 0 153
-0.056333 0.147536 0.008832 76 153 0
0.334675 -0.223136 -0.244015 76 0 153
0.024262 0.151540 -0.026212 76 153 0
0.078458 -0.101728 -0.077064 153 0 76
-0.333095 -0.253350 -0.076188 76 0 153
-0.531535 -0.113497 -0.058058 76 0 153
-0.532171 -0.208179 -0.247427 76 0 153
-0.062149 0.876828 0.150063 76 153 0
0.525432 -0.253350 0.146090 76 0 153
-0.689843 -0.151254 0.050884 76 0 153
0.166518 -0.253350 0.158359 76 0 153
-0.011160 -0.166094 -0.066796 153 0 76
-0.374610 -0.253350 0.110204 76 0 153
-0.094235 -0.151254 -0.239697 76 0 153
0.001316 -0.101728 0.050555 153 0 76
0.041146 0.699404 0.432679 204 51 127
0.608630 -0.253350 -0.059142 76 0 153
-0.415893 -0.209747 0.182684 76 0 153
-0.062975 -0.175444 0.096111 153 0 76
-0.547907 -0.251667 0.030391 76 0 153
-0.155764 -0.253350 -0.009957 76 0 153
-0.130587 -0.175444 -0.127421 153 0 76
-0.506105 -0.103547 -0.058081 76 0 153
0.109009 -0.175444 -0.208101 153 0 76
0.024039 0.739491 -0.045721 76 153 0
-0.467017 -0.244470 0.194082 76 0 153
-0.080913 0.524583 -0.033883 76 153 0
-0.075543 0.894435 0.131321 76 153 0
0.099664 -0.065021 -0.033609 153 0 76
-0.079580 -0.079968 -0.047188 76 153 0
0.003229 0.552331 0.007673 76 153 0
0.104956 -0.159857 0.170442 153 0 76
-0.064381 0.086128 0.064699 153 0 76
-0.107049 -0.101715 -0.174294 153 0 76
0.148731 -0.151254 0.063553 76 0 153
-0.603991 -0.253350 -0.175095 76 0 153
0.019714 -0.048213 -0.027337 76 153 0
0.537118 -0.151254 -0.097692 76 0 153
-0.086120 -0.101728 -0.090501 153 0 76
-0.239552 -0.151254 -0.174516 76 0 153
-0.008565 -0.253350 0.029324 76 0 153
-0.058148 -0.253350 -0.228675 76 0 153
-0.070258 0.014268 -0.016728 76 153 0
0.197817 -0.160932 0.057050 153 0 76
-0.078393 0.746373 0.390103 76 153 0
-0.040126 0.477051 0.016322 76 153 0
-0.114321 -0.101728 -0.034638 153 0 76
-0.340247 -0.253350 0.117056 76 0 153
-0.534496 -0.253350 0.182609 76 0 153
0.402348 -0.159504 0.011238 153 76 0
0.378704 -0.253350 -0.165793 76 0 153
-0.256521 -0.175444 -0.069852 153 0 76
0.501329 0.033776 -0.009359 0 255 0
0.113233 -0.084482 -0.062757 153 0 76
0.165932 -0.253350 -0.101310 76 0 153
-0.548759 -0.221208 -0.243677 76 0 153
0.134809 -0.101117 -0.049979 153 0 76
-0.275802 -0.151254 0.077161 76 0 153
0.024483 -0.101728 0.041897 153 0 76
-0.521610 -0.097479 0.003171 76 0 153
-0.025755 0.339294 0.017684 76 153 0
-0.031323 0.718283 0.424734 76 153 0
0.449351 -0.253350 0.155436 76 0 153
-0.611785 -0.172188 -0.216169 76 0 153
0.016357 -0.027783 -0.154391 153 0 76
-0.102136 0.749727 0.409039 204 51 127
0.039825 -0.175444 -0.127339 153 0 76
0.009345 -0.025758 -0.072878 76 153 0
-0.683549 -0.253350 -0.098200 76 0 153
0.270717 -0.151254 -0.148937 76 0 153
-0.094487 -0.234085 -0.378757 76 0 153
0.075144 -0.151254 0.245889 76 0 153
-0.060087 0.021768 -0.077377 76 153 0
-0.070163 -0.253350 -0.261858 76 0 153
0.042928 0.644370 0.407386 204 51 127
-0.476814 -0.096820 -0.066704 76 0 153
0.024901 0.921872 0.122317 76 153 0
0.000475 0.794246 0.353293 76 153 0
-0.186458 -0.175444 0.118860 153 0 76
-0.067260 0.312732 -0.070838 76 153 0
-0.137226 -0.102518 -0.153944 153 0 76
0.502699 -0.253350 -0.135298 76 0 153
-0.001467 0.806149 0.026570 76 153 0
0.037287 0.024968 -0.142914 153 0 76
-0.549420 -0.161788 0.028878 76 0 153
-0.633994 -0.250552 -0.200046 76 0 153
-0.346460 -0.151254 -0.184508 76 0 153
0.023001 -0.049029 -0.051686 153 0 76
-0.222246 -0.253350 0.146421 76 0 153
-0.274847 -0.253350 0.167897 76 0 153
-0.071388 0.813499 -0.054823 76 153 0
-0.012671 0.866270 0.192171 76 153 0
0.453604 0.013310 -0.067504 0 255 0
0.526410 -0.151254 0.203958 76 0 153
0.467004 -0.131128 0.051755 153 76 0
-0.565194 -0.151254 0.001737 76 0 153
0.391893 -0.127063 -0.026459 153 76 0
0.052173 -0.253350 -0.040980 76 0 153
-0.560932 -0.149868 -0.072136 76 0 153
-0.069006 0.518796 -0.001788 76 153 0
0.024927 0.908739 0.093636 76 153 0
-0.171988 -0.151254 0.145424 76 0 153
0.485269 -0.101029 -0.041421 153 76 0
-0.322648 -0.151254 -0.215299 76 0 153
0.150466 -0.151254 -0.177477 153 0 76
-0.162196 -0.088590 -0.090097 153 0 76
-0.183755 -0.151254 -0.018699 76 0 153
0.482052 -0.253350 -0.179338 76 0 153
0.141214 -0.253350 -0.283868 76 0 153
0.072188 -0.175444 -0.188772 153 0 76
0.669968 -0.179276 -0.183386 76 0 153
-0.099539 -0.151254 0.045197 76 0 153
-0.508181 -0.176901 0.050527 76 0 153
-0.071052 0.345204 -0.066118 76 153 0
-0.464931 -0.078752 -0.045803 76 0 153
-0.079927 0.312138 -0.024878 76 153 0
-0.076324 -0.008464 -0.013524 76 153 0
-0.614130 -0.191504 0.158915 76 0 153
0.122019 -0.151254 -0.028328 76 0 153
-0.621084 -0.253350 0.016728 76 0 153
0.078511 -0.087998 -0.134270 153 0 76
0.035243 0.093323 0.045127 153 0 76
-0.617775 -0.151254 -0.043117 76 0 153
-0.001718 -0.253350 0.087861 76 0 153
0.605965 -0.151254 0.040675 76 0 153
0.023898 0.762409 0.395589 76 153 0
0.520992 -0.192483 0.035800 153 76 0
-0.061287 -0.018110 0.005910 76 153 0
0.472903 -0.253350 -0.226027 76 0 153
0.559752 -0.151254 -0.226375 76 0 153
0.122961 -0.151254 -0.127032 76 0 153
0.131246 -0.175444 0.074155 153 0 76
0.391763 -0.213929 -0.028348 153 76 0
-0.517273 -0.195664 -0.249786 76 0 153
0.543626 0.027443 0.007658 0 255 0
-0.023646 -0.151254 -0.003145 76 0 153
0.479531 -0.077233 0.003400 153 76 0
0.024178 0.795116 0.389416 76 153 0
0.176968 -0.141659 -0.161958 153 0 76
0.020987 0.926876 0.069211 76 153 0
-0.012961 -0.253350 -0.304248 76 0 153
-0.272766 -0.151254 -0.102823 76 0 153
-0.161933 -0.151254 -0.045342 76 0 153
0.023733 0.844434 0.361765 76 153 0
-0.065385 -0.126660 -0.262025 153 0 76
-0.547808 -0.130260 0.030491 76 0 153
0.002091 0.418637 0.008411 76 153 0
0.518498 0.015496 -0.127857 0 255 0
0.490955 -0.013735 -0.038788 0 255 0
-0.109502 -0.151254 -0.131724 76 0 153
0.070004 -0.180711 -0.370937 76 0 153
-0.577720 -0.151254 -0.224050 76 0 153
0.063294 -0.101728 -0.085513 153 0 76
0.238080 -0.151254 0.189559 76 0 153
-0.188445 -0.125989 0.126169 153 0 76
-0.121871 -0.059339 -0.082049 153 0 76
0.034442 -0.253350 -0.346433 76 0 153
0.603892 0.016197 0.029010 0 255 0
0.025089 0.091160 -0.035659 76 153 0
-0.298958 -0.156947 -0.276855 76 0 153
0.244773 -0.151254 -0.200851 76 0 153
-0.035496 -0.253350 -0.352941 76 0 153
-0.090876 0.131358 -0.000287 153 0 76
-0.582160 -0.252980 -0.232286 76 0 153
-0.526028 0.026974 0.022903 127 127 0
-0.177345 -0.151254 -0.194794 76 0 153
-0.128509 -0.101728 0.021745 153 0 76
0.158562 -0.253350 -0.307422 76 0 153
-0.080028 0.833926 0.370612 76 153 0
-0.582629 -0.253350 0.104180 76 0 153
0.507135 -0.151254 0.001339 76 0 153
-0.251118 -0.151254 0.026235 76 0 153
-0.334983 -0.253350 -0.109120 76 0 153
-0.117112 -0.253350 -0.241703 76 0 153
-0.168019 -0.178833 -0.356063 76 0 153
0.553092 -0.199038 -0.025278 153 76 0
-0.613565 -0.253350 -0.143038 76 0 153
0.054857 -0.101728 0.052461 153 0 76
0.028054 -0.175444 -0.115795 153 0 76
-0.036911 -0.151254 -0.192481 76 0 153
0.552395 -0.253350 0.085765 76 0 153
-0.048511 0.447264 0.013589 76 153 0
0.029136 -0.101728 0.062864 153 0 76
0.240508 -0.221408 -0.266808 76 0 153
-0.038243 -0.126687 0.201356 153 0 76
0.078844 -0.012792 -0.104193 153 0 76
-0.523148 -0.125755 0.004536 76 0 153
-0.393211 -0.151254 0.165814 76 0 153
0.507120 -0.089034 -0.010607 153 76 0
0.076919 0.084908 -0.012890 153 0 76
-0.154682 -0.094444 -0.045461 153 0 76
-0.042984 -0.175444 0.031174 153 0 76
0.478784 -0.253350 0.107810 76 0 153
0.219652 -0.253350 -0.073886 76 0 153
0.513299 -0.151254 -0.164130 76 0 153
0.275397 -0.151254 -0.224261 76 0 153
0.213082 -0.182504 0.219514 76 0 153
-0.306095 -0.151254 -0.118991 76 0 153
-0.697311 -0.169390 0.060066 76 0 153
0.022062 0.288237 -0.017709 76 153 0
0.211966 -0.203133 -0.289885 76 0 153
-0.413270 -0.151254 0.090901 76 0 153
-0.201088 -0.151254 0.226446 76 0 153
-0.396958 -0.253350 0.020826 76 0 153
0.635825 -0.183112 -0.218663 76 0 153
-0.569656 0.012443 0.047628 127 127 0
0.182462 -0.253350 -0.311472 76 0 153
-0.494683 -0.253350 0.047637 76 0 153
-0.071368 -0.151254 0.225431 76 0 153
0.242859 -0.151254 0.061517 76 0 153
-0.035768 0.686366 0.457592 153 0 76
0.336982 -0.194275 0.180756 76 0 153
0.422551 0.015876 -0.023108 0 255 0
-0.591724 -0.253350 -0.053527 76 0 153
-0.607919 -0.151254 0.147400 76 0 153
-0.019728 -0.253350 0.178161 76 0 153
-0.427174 -0.151254 0.155034 76 0 153
-0.242686 -0.151254 -0.031187 76 0 153
0.045053 -0.126108 0.183694 153 0 76
0.165863 -0.175444 -0.175641 153 0 76
0.023422 0.659575 -0.022250 76 153 0
0.024731 0.361416 -0.041352 76 153 0
0.454048 -0.218997 -0.107273 153 76 0
0.022964 0.804287 -0.009151 76 153 0
0.672040 -0.151254 0.112143 76 0 153
-0.069067 0.238905 -0.068631 76 153 0
0.178522 -0.151254 -0.041325 76 0 153
-0.489826 -0.253350 0.123277 76 0 153
0.586309 0.039158 0.045117 0 255 0
-0.106925 -0.253350 0.171795 76 0 153
-0.226386 -0.138925 0.103998 153 0 76
0.061033 0.057041 -0.113851 153 0 76
0.166294 -0.151254 0.068351 76 0 153
0.049453 -0.253350 -0.103497 76 0 153
-0.134387 -0.092126 -0.104702 153 0 76
0.017727 0.881528 0.082752 76 153 0
-0.015449 0.864566 0.114189 76 153 0
0.612685 -0.253350 0.105118 76 0 153
0.428525 -0.137002 -0.021152 153 76 0
0.154522 -0.253350 -0.077133 76 0 153
-0.051432 0.870178 0.132635 76 153 0
0.586264 -0.188928 -0.251069 76 0 153
0.308700 -0.235753 -0.244076 76 0 153
-0.019075 0.654930 0.478201 204 51 127
-0.109106 -0.151254 0.263182 76 0 153
0.025027 0.827637 0.383971 76 153 0
-0.070965 0.008263 0.084386 153 0 76
0.018709 0.736172 0.348524 204 51 127
-0.162375 -0.096580 0.046020 153 0 76
-0.072183 -0.170401 0.311792 76 0 153
0.188967 -0.151254 0.154680 76 0 153
0.022749 -0.253350 0.302220 76 0 153
0.449300 -0.151254 -0.052933 153 76 0
-0.045880 0.967515 0.132751 76 153 0
0.508777 -0.253350 0.195686 76 0 153
-0.019295 0.538334 -0.087504 76 153 0
-0.034697 -0.166094 -0.064818 153 0 76
-0.073409 0.209916 -0.062490 76 153 0
-0.063729 0.393633 -0.074363 76 153 0
-0.067935 0.582514 -0.000467 76 153 0
0.115544 -0.253350 -0.110418 76 0 153
-0.553200 0.028081 0.038465 127 127 0
0.703087 -0.252923 0.061573 76 0 153
0.424392 -0.151254 -0.160977 76 0 153
0.523323 -0.126937 0.030505 153 76 0
0.138710 -0.253350 -0.131555 76 0 153
0.097006 -0.081595 -0.098605 153 0 76
0.449930 -0.190776 -0.274096 76 0 153
0.555581 -0.151254 0.150293 76 0 153
0.043072 -0.128838 -0.263465 153 0 76
0.334538 -0.224923 0.180548 76 0 153
-0.630170 -0.151254 0.063472 76 0 153
-0.019202 0.021770 -0.087490 76 153 0
-0.489954 -0.126728 -0.104383 76 0 153
-0.149051 -0.151254 0.126169 76 0 153
0.143988 -0.189191 -0.339977 76 0 153
0.445274 -0.121437 -0.081029 153 76 0
0.557924 -0.253350 -0.236686 76 0 153
-0.035877 0.938416 0.348629 76 153 0
-0.082168 -0.175444 -0.190550 153 0 76
0.193311 -0.253350 -0.116428 76 0 153
0.028809 -0.101728 -0.125683 153 0 76
-0.432826 -0.151254 0.075285 76 0 153
0.066858 -0.175444 0.029164 153 0 76
0.356204 -0.151254 -0.059464 76 0 153
-0.505432 -0.233872 -0.250604 76 0 153
-0.126280 -0.253350 -0.344466 76 0 153
-0.128904 -0.114320 -0.186215 153 0 76
-0.010700 0.395852 -0.085368 76 153 0
0.140704 -0.118242 -0.131139 153 0 76
0.494533 -0.118813 0.021504 153 76 0
0.408550 -0.163700 -0.077899 153 76 0
0.019753 -0.175444 -0.169486 153 0 76
-0.048182 0.159028 -0.063008 153 0 76
-0.484594 -0.151254 -0.161449 76 0 153
0.368360 -0.253350 -0.049711 76 0 153
0.544677 -0.171159 0.007295 153 76 0
-0.064730 0.955305 0.155172 76 153 0
-0.146232 -0.253350 0.003695 76 0 153
-0.022539 0.462511 -0.087998 76 153 0
-0.131662 -0.151254 0.036979 76 0 153
0.012801 -0.175444 0.012253 153 0 76
-0.038860 0.459381 -0.087145 76 153 0
0.512217 -0.253350 0.034020 153 76 0
-0.610559 -0.160046 0.161234 76 0 153
-0.569705 -0.236603 -0.003597 76 0 153
0.173579 -0.151254 0.115255 76 0 153
0.022224 -0.151254 -0.063369 76 153 0
-0.257049 -0.127030 0.038929 153 0 76
-0.617995 0.036007 -0.085969 127 127 0
-0.150234 -0.031057 -0.000566 153 0 76
-0.009366 0.014268 -0.044324 76 153 0
0.662349 -0.253350 -0.003169 76 0 153
0.651875 -0.219522 0.137949 76 0 153
-0.029708 0.816869 0.040565 76 153 0
-0.020406 0.855803 0.279093 76 153 0
-0.017959 -0.253350 -0.205954 76 0 153
0.043608 -0.238746 0.307463 76 0 153
-0.126171 -0.253350 -0.145358 76 0 153
0.023519 0.904373 0.214942 76 153 0
0.699406 -0.151254 -0.037909 76 0 153
0.337233 -0.152974 0.180777 76 0 153
0.502572 0.015997 -0.131487 0 255 0
-0.626252 -0.151254 0.087014 76 0 153
-0.089327 -0.175444 -0.220198 153 0 76
-0.140399 -0.175444 -0.097857 153 0 76
0.580490 -0.151254 -0.158266 76 0 153
-0.091648 -0.101728 -0.064351 153 0 76
0.049870 -0.166084 -0.376431 76 0 153
-0.523935 0.021097 -0.045122 127 127 0
-0.589941 -0.216395 0.172688 76 0 153
-0.050141 -0.051001 -0.096165 153 0 76
0.548524 -0.183519 -0.001691 153 76 0
-0.267693 -0.137342 -0.049744 153 0 76
0.547998 0.010081 0.041940 0 255 0
-0.214703 -0.151254 -0.021533 76 0 153
0.052233 -0.069196 -0.133879 153 0 76
-0.082839 -0.151254 -0.168852 76 0 153
-0.461486 -0.196221 -0.103032 76 0 153
0.618500 -0.151254 0.157816 76 0 153
-0.054886 0.338134 0.010413 76 153 0
0.501630 -0.151254 -0.114521 76 0 153
-0.550103 -0.125633 -0.068551 76 0 153
-0.339836 -0.151254 0.013248 76 0 153
0.029028 -0.175444 0.084829 153 0 76
0.005128 -0.078085 0.101674 153 0 76
0.349014 -0.151254 -0.180769 76 0 153
-0.111357 0.115816 -0.012285 153 0 76
0.033179 -0.253350 0.071820 76 0 153
0.472784 -0.253350 -0.029654 76 0 153
-0.569563 -0.236992 -0.054215 76 0 153
0.396838 -0.128364 -0.000791 153 76 0
-0.178285 -0.253350 0.217292 76 0 153
-0.038794 -0.253350 -0.253187 76 0 153
0.493166 -0.038872 -0.030008 0 255 0
0.625108 -0.253350 -0.162103 76 0 153
0.031426 -0.160996 0.202427 76 0 153
0.024292 0.296309 -0.044123 76 153 0
-0.242454 -0.250600 -0.311391 76 0 153
-0.075985 0.687117 -0.057629 76 153 0
0.474526 -0.229929 0.051938 153 76 0
0.054548 -0.175444 -0.205112 153 0 76
0.038284 -0.093381 0.105982 153 0 76
-0.117357 0.093231 0.014538 153 0 76
0.000441 -0.151254 -0.193453 76 0 153
-0.043226 -0.175444 -0.089293 153 0 76
0.090364 -0.115606 0.114571 153 0 76
0.506511 -0.206158 0.044474 153 76 0
0.680444 -0.151254 -0.141519 76 0 153
-0.513134 -0.253350 -0.152480 76 0 153
-0.448302 -0.253350 0.128670 76 0 153
-0.032131 0.919575 -0.008859 76 153 0
0.377754 0.003578 -0.101334 0 255 0
0.294506 -0.195532 0.183039 76 0 153
-0.447375 -0.117772 -0.001014 76 0 153
-0.466813 0.002392 -0.022471 127 127 0
0.580220 -0.218085 -0.254208 76 0 153
-0.714603 -0.214194 -0.044917 76 0 153
-0.376487 -0.199971 -0.253274 76 0 153
-0.441665 -0.214986 -0.090967 76 0 153
-0.176631 -0.175444 -0.165415 153 0 76
0.023360 0.183161 -0.022044 76 153 0
0.024040 0.500246 -0.024796 76 153 0
0.370397 -0.253350 -0.077812 76 0 153
-0.001478 0.825761 0.438707 76 153 0
-0.515209 -0.253350 0.029574 76 0 153
-0.154514 -0.253350 -0.129749 76 0 153
-0.169818 -0.253350 0.018668 76 0 153
-0.135900 -0.240809 0.297712 76 0 153
-0.097460 -0.151254 -0.373879 76 0 153
-0.466723 -0.149497 -0.063432 76 0 153
0.567213 -0.253350 -0.185973 76 0 153
-0.631299 -0.253350 0.036942 76 0 153
0.437437 -0.175524 0.043929 153 76 0
-0.072124 -0.175444 -0.010927 153 0 76
0.019697 0.931841 0.292759 76 153 0
-0.038737 -0.151254 0.276525 76 0 153
-0.017937 -0.175444 -0.148035 153 0 76
-0.259505 -0.185364 -0.297712 76 0 153
-0.076943 -0.253350 -0.135849 76 0 153
0.045094 -0.151254 -0.096579 76 0 153
-0.164327 -0.175444 0.069257 153 0 76
0.590887 -0.151254 0.003476 76 0 153
-0.135446 -0.151254 0.080036 76 0 153
0.233604 -0.253350 0.025159 76 0 153
0.013367 0.253591 -0.068415 76 153 0
-0.409006 0.019766 0.020624 127 127 0
-0.527860 -0.151254 0.176387 76 0 153
0.617959 -0.151254 -0.111235 76 0 153
-0.605144 -0.239786 -0.220482 76 0 153
-0.209124 -0.113754 -0.055154 153 0 76
-0.077139 -0.101728 0.060623 153 0 76
-0.038599 -0.046688 -0.053903 153 0 76
0.223779 -0.151254 0.013720 76 0 153
0.273872 -0.151254 0.064410 76 0 153
0.393203 -0.226999 -0.013858 153 76 0
-0.199066 -0.175444 -0.184024 153 0 76
0.456621 -0.019171 -0.043372 0 255 0
0.610511 -0.253350 0.072944 76 0 153
-0.496400 -0.067846 -0.009097 76 0 153
-0.637227 -0.151254 0.039168 76 0 153
0.500049 -0.136729 -0.062374 153 76 0
0.088576 -0.165057 0.294496 76 0 153
-0.060688 -0.175444 0.131523 153 0 76
0.015179 -0.151254 0.294425 76 0 153
0.443285 -0.191009 0.046453 153 76 0
0.006071 0.140545 -0.086770 153 0 76
0.197942 -0.175444 0.049572 153 0 76
0.445974 -0.123995 0.030240 153 76 0
-0.049964 0.846373 -0.058599 76 153 0
0.015446 -0.142222 -0.004790 76 153 0
