0.032485 0.219941 -0.165749 0.600000 0.000000 0.300000
0.282197 -0.464434 0.495856 0.300000 0.600000 0.000000
0.192605 0.127964 0.119142 0.600000 0.000000 0.300000
-0.179135 -0.464242 0.385187 0.300000 0.600000 0.000000
0.262689 0.106520 -0.683158 0.300000 0.000000 0.600000
0.111213 -0.061119 0.430348 0.000000 0.500000 0.500000
-0.289364 -0.202200 -0.272244 0.600000 0.000000 0.300000
-0.000017 -0.234156 -0.415828 0.300000 0.000000 0.600000
0.011896 -0.317433 0.334647 0.000000 0.500000 0.500000
0.197813 0.214726 -0.648718 0.300000 0.000000 0.600000
-0.021765 0.665569 0.538710 0.000000 1.000000 0.000000
-0.014731 0.687672 0.192248 0.000000 1.000000 0.000000
-0.022508 0.405222 0.219158 0.000000 1.000000 0.000000
-0.278525 -0.458942 0.395246 0.300000 0.600000 0.000000
0.146952 0.254710 -0.474171 0.300000 0.000000 0.600000
-0.281739 -0.461584 0.345762 0.300000 0.600000 0.000000
-0.192276 -0.339712 -0.140534 0.600000 0.000000 0.300000
-0.158695 -0.302743 0.022717 0.000000 0.500000 0.500000
0.051672 -0.254951 -0.049056 0.000000 0.500000 0.500000
0.190101 -0.162005 0.659676 0.300000 0.600000 0.000000
0.049018 0.903390 -0.224181 0.000000 1.000000 0.000000
-0.020651 0.297613 -0.206651 0.300000 0.000000 0.600000
-0.241309 0.175707 -0.433791 0.300000 0.000000 0.600000
-0.008245 -0.223381 -0.373372 0.300000 0.000000 0.600000
0.096946 -0.105805 0.031587 0.000000 0.500000 0.500000
-0.120945 -0.233261 -0.767588 0.300000 0.000000 0.600000
-0.146728 -0.309679 -0.316057 0.600000 0.000000 0.300000
0.009051 0.081214 0.226927 0.000000 0.500000 0.500000
-0.186178 -0.009369 0.229473 0.000000 0.500000 0.500000
0.220297 -0.259777 0.483212 0.300000 0.600000 0.000000
0.211783 -0.157005 -0.782100 0.300000 0.000000 0.600000
0.198757 -0.008387 0.084260 0.000000 0.500000 0.500000
-0.129655 -0.222983 0.696491 0.300000 0.600000 0.000000
0.062533 0.629242 0.136728 0.000000 1.000000 0.000000
-0.231996 -0.427005 0.516271 0.300000 0.600000 0.000000
-0.186556 0.102342 0.142193 0.600000 0.000000 0.300000
0.189947 -0.285215 0.021429 0.600000 0.000000 0.300000
0.260838 0.115924 -0.443318 0.300000 0.000000 0.600000
-0.296192 0.025162 0.065075 0.600000 0.000000 0.300000
0.142164 0.135126 -0.857343 0.300000 0.000000 0.600000
-0.103642 0.806332 0.159920 0.000000 1.000000 0.000000
-0.003522 0.184480 -0.090050 0.600000 0.000000 0.300000
-0.101244 0.413534 0.002859 0.000000 1.000000 0.000000
-0.167404 0.258239 -0.056494 0.600000 0.000000 0.300000
0.233697 -0.144217 0.017694 0.000000 0.500000 0.500000
0.012208 -0.129359 0.598956 0.300000 0.600000 0.000000
0.225280 -0.524915 0.551112 0.300000 0.600000 0.000000
0.125196 0.519366 0.172961 0.000000 1.000000 0.000000
0.175430 0.235387 -0.216875 0.300000 0.000000 0.600000
-0.169932 0.247072 -0.382654 0.300000 0.000000 0.600000
0.232472 -0.296456 0.279704 0.000000 0.500000 0.500000
-0.345177 -0.077969 -0.032879 0.600000 0.000000 0.300000
0.089598 0.208060 0.088635 0.600000 0.000000 0.300000
0.239800 -0.561135 0.531528 0.300000 0.600000 0.000000
-0.148049 0.573636 0.057106 0.000000 1.000000 0.000000
0.114121 -0.327257 -0.296380 0.600000 0.000000 0.300000
-0.208638 -0.244071 0.027213 0.000000 0.500000 0.500000
-0.285142 0.181597 -0.192278 0.600000 0.000000 0.300000
-0.120069 -0.213041 -0.460057 0.300000 0.000000 0.600000
0.329081 -0.005184 -0.257039 0.600000 0.000000 0.300000
0.218444 -0.105680 -0.405950 0.600000 0.000000 0.300000
0.351515 -0.010966 -0.120536 0.600000 0.000000 0.300000
-0.126321 -0.602672 0.339056 0.300000 0.600000 0.000000
-0.226746 -0.118659 0.580282 0.300000 0.600000 0.000000
-0.306105 -0.191969 -0.247944 0.600000 0.000000 0.300000
0.130641 -0.284210 0.077916 0.600000 0.000000 0.300000
-0.177835 -0.181190 -0.472199 0.300000 0.000000 0.600000
-0.175788 0.240497 -0.819086 0.300000 0.000000 0.600000
-0.087051 -0.574950 0.458193 0.300000 0.600000 0.000000
0.013011 -0.004108 0.221563 0.600000 0.000000 0.300000
0.105279 -0.144251 0.566732 0.300000 0.600000 0.000000
-0.227238 0.219425 -0.011501 0.600000 0.000000 0.300000
0.197142 0.243282 -0.029705 0.600000 0.000000 0.300000
-0.201115 -0.210410 -0.024973 0.000000 0.500000 0.500000
-0.215296 -0.592611 0.514509 0.300000 0.600000 0.000000
0.079784 0.285453 -0.274448 0.300000 0.000000 0.600000
-0.107655 -0.347364 -0.267688 0.600000 0.000000 0.300000
-0.113404 -0.451863 0.236891 0.000000 0.500000 0.500000
-0.053185 0.581312 0.400447 0.000000 1.000000 0.000000
0.021020 0.836045 0.173805 0.000000 1.000000 0.000000
-0.137390 0.440177 -0.025246 0.600000 0.000000 0.300000
-0.032881 -0.261976 -0.052855 0.000000 0.500000 0.500000
0.025488 -0.497149 0.237474 0.300000 0.600000 0.000000
-0.059939 -0.015321 0.528932 0.300000 0.600000 0.000000
-0.220406 0.198487 -0.825250 0.300000 0.000000 0.600000
0.105281 -0.360937 -0.227255 0.600000 0.000000 0.300000
-0.269142 -0.513518 0.405705 0.300000 0.600000 0.000000
-0.285564 0.175248 -0.219320 0.600000 0.000000 0.300000
-0.271662 0.109859 -0.754587 0.300000 0.000000 0.600000
-0.042784 0.672250 0.274243 0.000000 1.000000 0.000000
-0.095309 0.462355 0.226853 0.000000 1.000000 0.000000
0.297564 -0.275674 0.463580 0.300000 0.600000 0.000000
0.143553 0.404722 -0.038096 0.600000 0.000000 0.300000
-0.010797 -0.262140 -0.804755 0.300000 0.000000 0.600000
0.015877 0.333936 -0.177308 0.600000 0.000000 0.300000
0.231536 0.173344 -0.528266 0.300000 0.000000 0.600000
-0.189765 -0.302675 0.342627 0.000000 0.500000 0.500000
0.126009 0.094503 0.176133 0.600000 0.000000 0.300000
0.004998 -0.606166 0.334624 0.300000 0.600000 0.000000
-0.049801 0.623060 0.329023 0.000000 1.000000 0.000000
0.198921 -0.488759 0.521567 0.300000 0.600000 0.000000
0.049551 0.292628 -0.547230 0.300000 0.000000 0.600000
-0.014851 0.572573 0.667547 0.000000 1.000000 0.000000
-0.224343 -0.334376 0.249732 0.000000 0.500000 0.500000
-0.139070 0.299659 -0.149937 0.600000 0.000000 0.300000
0.276585 0.033359 -0.573854 0.300000 0.000000 0.600000
0.046850 0.292962 -0.465166 0.300000 0.000000 0.600000
-0.098278 -0.531148 0.219091 0.300000 0.600000 0.000000
0.120901 -0.218482 -0.605684 0.300000 0.000000 0.600000
-0.163648 0.250885 -0.649390 0.300000 0.000000 0.600000
0.196173 0.108884 -0.250463 0.300000 0.000000 0.600000
0.031594 -0.593015 0.284911 0.300000 0.600000 0.000000
0.195036 -0.279292 0.683920 0.300000 0.600000 0.000000
0.299948 -0.296307 0.354446 0.300000 0.600000 0.000000
0.204769 -0.162514 -0.719244 0.300000 0.000000 0.600000
-0.261088 0.135796 -0.723281 0.300000 0.000000 0.600000
-0.127577 -0.342302 -0.011348 0.600000 0.000000 0.300000
0.065214 -0.173199 -0.458229 0.600000 0.000000 0.300000
-0.275464 0.103279 -0.634624 0.300000 0.000000 0.600000
0.067449 -0.244501 -0.679625 0.300000 0.000000 0.600000
0.089227 0.548099 0.111622 0.000000 1.000000 0.000000
0.085396 0.244033 -0.344965 0.600000 0.000000 0.300000
-0.017909 0.308804 -0.248158 0.600000 0.000000 0.300000
0.239911 -0.262110 -0.257169 0.600000 0.000000 0.300000
0.066468 0.248209 0.122522 0.600000 0.000000 0.300000
-0.075107 0.184214 0.094385 0.600000 0.000000 0.300000
0.210649 -0.153426 0.391083 0.000000 0.500000 0.500000
-0.189437 0.096313 -0.255114 0.300000 0.000000 0.600000
0.191668 -0.213372 0.528312 0.300000 0.600000 0.000000
0.170716 0.266746 -0.236001 0.600000 0.000000 0.300000
0.073227 -0.144262 0.599636 0.300000 0.600000 0.000000
0.316862 -0.314699 0.586288 0.300000 0.600000 0.000000
0.011169 0.817320 -0.142235 0.000000 1.000000 0.000000
0.178438 0.026840 0.152792 0.000000 0.500000 0.500000
-0.024962 0.713216 0.400105 0.000000 1.000000 0.000000
-0.309105 0.075110 0.019634 0.600000 0.000000 0.300000
0.181082 -0.193058 -0.839879 0.300000 0.000000 0.600000
-0.331963 0.108891 -0.163518 0.600000 0.000000 0.300000
-0.083609 0.617651 -0.042670 0.000000 1.000000 0.000000
0.296280 -0.218115 -0.092935 0.600000 0.000000 0.300000
0.106959 -0.131517 0.435171 0.000000 0.500000 0.500000
0.141418 -0.220219 -0.786343 0.300000 0.000000 0.600000
0.159902 -0.513316 0.266523 0.300000 0.600000 0.000000
-0.027247 0.613802 0.060612 0.000000 1.000000 0.000000
0.001402 0.617988 0.311441 0.000000 1.000000 0.000000
-0.219567 -0.356987 0.267313 0.000000 0.500000 0.500000
0.200734 0.210557 -0.735338 0.300000 0.000000 0.600000
0.197279 -0.358294 0.238262 0.000000 0.500000 0.500000
-0.155005 -0.477451 0.248125 0.300000 0.600000 0.000000
-0.174198 -0.252384 -0.360011 0.600000 0.000000 0.300000
0.018768 -0.401006 0.093624 0.000000 0.500000 0.500000
0.244694 -0.099695 -0.585325 0.300000 0.000000 0.600000
-0.222087 -0.097081 0.286097 0.000000 0.500000 0.500000
-0.020376 0.496991 0.640655 0.000000 1.000000 0.000000
-0.020957 0.350573 0.137267 0.000000 1.000000 0.000000
-0.156330 -0.151023 0.424624 0.000000 0.500000 0.500000
0.309099 -0.408749 0.417097 0.300000 0.600000 0.000000
0.148125 -0.212163 -0.735074 0.300000 0.000000 0.600000
0.129598 -0.588272 0.333761 0.300000 0.600000 0.000000
-0.125493 -0.438536 0.269167 0.000000 0.500000 0.500000
-0.201117 -0.087270 -0.857343 0.300000 0.000000 0.600000
-0.301157 -0.209161 0.427982 0.300000 0.600000 0.000000
0.266897 -0.145456 -0.336969 0.600000 0.000000 0.300000
-0.143163 0.373973 0.153991 0.000000 1.000000 0.000000
0.010189 -0.553687 0.392926 0.300000 0.600000 0.000000
-0.161262 0.252764 -0.587472 0.300000 0.000000 0.600000
0.268713 0.093203 -0.468298 0.300000 0.000000 0.600000
0.244310 0.222983 -0.172514 0.600000 0.000000 0.300000
0.089363 0.602753 -0.005051 0.000000 1.000000 0.000000
-0.141414 -0.048532 -0.857343 0.300000 0.000000 0.600000
0.236850 0.169715 -0.275774 0.300000 0.000000 0.600000
-0.001899 0.318535 -0.049250 0.600000 0.000000 0.300000
0.003289 0.028160 -0.280324 0.300000 0.000000 0.600000
0.033444 0.619821 -0.041486 0.000000 1.000000 0.000000
0.299352 -0.400000 0.351857 0.300000 0.600000 0.000000
0.156404 0.050369 0.155945 0.000000 0.500000 0.500000
-0.284202 -0.465117 0.437622 0.300000 0.600000 0.000000
0.078146 0.286057 -0.591818 0.300000 0.000000 0.600000
0.246231 0.056699 0.103223 0.600000 0.000000 0.300000
0.169098 -0.381385 0.203756 0.000000 0.500000 0.500000
0.150669 -0.630404 0.463181 0.300000 0.600000 0.000000
0.268857 -0.223021 0.385695 0.300000 0.600000 0.000000
0.028487 0.559925 0.172028 0.000000 1.000000 0.000000
0.091415 0.056268 -0.269927 0.300000 0.000000 0.600000
0.208819 -0.299270 0.628966 0.300000 0.600000 0.000000
-0.217870 -0.588288 0.481306 0.300000 0.600000 0.000000
0.268506 0.088403 -0.772303 0.300000 0.000000 0.600000
0.275700 0.033520 -0.797274 0.300000 0.000000 0.600000
-0.040978 0.295203 -0.320262 0.300000 0.000000 0.600000
-0.221294 -0.053203 0.060028 0.000000 0.500000 0.500000
0.248685 -0.517542 0.441098 0.300000 0.600000 0.000000
-0.284230 0.060111 -0.516019 0.300000 0.000000 0.600000
0.155343 0.287518 -0.116791 0.600000 0.000000 0.300000
-0.260001 -0.161653 0.528972 0.300000 0.600000 0.000000
0.083312 -0.439553 0.197746 0.000000 0.500000 0.500000
0.042580 -0.260724 0.365310 0.000000 0.500000 0.500000
-0.161591 0.327338 0.053862 0.600000 0.000000 0.300000
-0.280095 -0.031180 -0.345358 0.300000 0.000000 0.600000
-0.142280 -0.286838 -0.033182 0.000000 0.500000 0.500000
0.256875 -0.185181 0.406155 0.300000 0.600000 0.000000
-0.257451 -0.236191 0.706020 0.300000 0.600000 0.000000
0.232902 -0.235964 0.174687 0.000000 0.500000 0.500000
-0.069604 0.286467 -0.285655 0.600000 0.000000 0.300000
0.057086 -0.676923 0.438191 0.300000 0.600000 0.000000
0.232901 -0.168380 0.299569 0.000000 0.500000 0.500000
0.225746 0.078463 -0.389012 0.600000 0.000000 0.300000
0.070697 -0.022944 0.577793 0.300000 0.600000 0.000000
-0.138293 -0.202038 0.725692 0.300000 0.600000 0.000000
-0.320166 -0.273990 0.551370 0.300000 0.600000 0.000000
-0.142738 -0.045847 -0.466703 0.600000 0.000000 0.300000
-0.270519 -0.268003 -0.171431 0.600000 0.000000 0.300000
0.290708 -0.394213 0.403545 0.300000 0.600000 0.000000
-0.061239 -0.193899 -0.452679 0.600000 0.000000 0.300000
-0.098206 0.343504 -0.143202 0.600000 0.000000 0.300000
-0.220981 0.200244 -0.468364 0.300000 0.000000 0.600000
-0.190665 -0.549467 0.314225 0.300000 0.600000 0.000000
-0.034217 -0.221760 0.167383 0.600000 0.000000 0.300000
-0.061410 0.275474 0.142892 0.600000 0.000000 0.300000
-0.153930 0.257574 -0.761625 0.300000 0.000000 0.600000
-0.161147 -0.139426 0.496132 0.300000 0.600000 0.000000
-0.298543 0.013364 -0.335896 0.600000 0.000000 0.300000
0.139643 0.259643 -0.729385 0.300000 0.000000 0.600000
0.045600 0.105410 0.172063 0.000000 0.500000 0.500000
-0.122701 0.273401 -0.397681 0.300000 0.000000 0.600000
-0.082738 0.288926 -0.670455 0.300000 0.000000 0.600000
-0.164468 -0.546815 0.508920 0.300000 0.600000 0.000000
0.069981 0.390983 0.207359 0.000000 1.000000 0.000000
0.287864 -0.398285 0.619581 0.300000 0.600000 0.000000
-0.318276 -0.366135 0.636620 0.300000 0.600000 0.000000
-0.147518 -0.388623 0.163517 0.000000 0.500000 0.500000
0.235272 -0.469892 0.272932 0.300000 0.600000 0.000000
-0.214108 -0.230621 0.381586 0.000000 0.500000 0.500000
-0.062933 -0.003904 0.217522 0.600000 0.000000 0.300000
-0.141933 -0.545834 0.464603 0.300000 0.600000 0.000000
0.103050 0.305644 -0.180088 0.600000 0.000000 0.300000
-0.308083 -0.303967 0.513908 0.300000 0.600000 0.000000
-0.174964 -0.101231 0.451547 0.300000 0.600000 0.000000
-0.086742 0.247340 -0.345949 0.600000 0.000000 0.300000
-0.013506 0.634175 0.193108 0.000000 1.000000 0.000000
-0.121093 0.532815 0.144250 0.000000 1.000000 0.000000
-0.014960 0.143518 -0.002605 0.600000 0.000000 0.300000
0.261423 0.053023 -0.358482 0.600000 0.000000 0.300000
-0.026933 -0.103878 0.215981 0.600000 0.000000 0.300000
0.100039 -0.104613 0.499336 0.300000 0.600000 0.000000
0.095619 0.734141 0.185874 0.000000 1.000000 0.000000
0.150971 0.250718 -0.817316 0.300000 0.000000 0.600000
0.241303 -0.103950 -0.504535 0.300000 0.000000 0.600000
0.017542 -0.015517 -0.857343 0.300000 0.000000 0.600000
-0.212489 -0.332113 0.200596 0.000000 0.500000 0.500000
0.202675 -0.188170 -0.382641 0.600000 0.000000 0.300000
-0.260604 -0.080623 -0.385237 0.300000 0.000000 0.600000
-0.125358 0.388313 0.056700 0.000000 1.000000 0.000000
0.074368 0.068352 -0.470849 0.600000 0.000000 0.300000
-0.297246 -0.450505 0.372815 0.300000 0.600000 0.000000
0.087537 0.097663 0.185925 0.600000 0.000000 0.300000
-0.302013 0.117351 -0.003772 0.600000 0.000000 0.300000
-0.156013 0.152726 -0.014199 0.600000 0.000000 0.300000
0.079927 -0.011072 0.500296 0.300000 0.600000 0.000000
-0.079208 0.086434 -0.857343 0.300000 0.000000 0.600000
0.244203 -0.468906 0.358443 0.300000 0.600000 0.000000
0.176666 -0.140021 -0.425069 0.600000 0.000000 0.300000
0.014118 -0.296100 -0.376996 0.600000 0.000000 0.300000
0.069947 -0.399808 0.112598 0.000000 0.500000 0.500000
-0.065715 0.103113 -0.462735 0.600000 0.000000 0.300000
-0.111370 0.277803 -0.305041 0.300000 0.000000 0.600000
-0.129075 0.270925 -0.249820 0.300000 0.000000 0.600000
-0.258928 0.194293 -0.022308 0.600000 0.000000 0.300000
0.131609 0.313745 0.089215 0.600000 0.000000 0.300000
0.286226 -0.225544 0.578071 0.300000 0.600000 0.000000
0.040280 0.709887 0.239897 0.000000 1.000000 0.000000
0.052159 0.075573 0.225429 0.000000 0.500000 0.500000
-0.214841 -0.084907 0.460373 0.300000 0.600000 0.000000
-0.250288 -0.132105 0.080026 0.000000 0.500000 0.500000
0.103513 -0.281610 0.094720 0.600000 0.000000 0.300000
0.044395 -0.107157 -0.485788 0.600000 0.000000 0.300000
0.047656 0.784802 0.098646 0.000000 1.000000 0.000000
0.015990 0.738432 0.096801 0.000000 1.000000 0.000000
-0.226889 -0.246854 0.100791 0.000000 0.500000 0.500000
0.250358 0.133252 -0.830677 0.300000 0.000000 0.600000
0.029252 0.065535 -0.266499 0.300000 0.000000 0.600000
-0.064810 0.759833 0.284468 0.000000 1.000000 0.000000
0.063635 0.780630 0.117935 0.000000 1.000000 0.000000
-0.284772 0.054771 -0.567864 0.300000 0.000000 0.600000
-0.004447 0.650235 0.169970 0.000000 1.000000 0.000000
-0.013504 0.428146 -0.135592 0.600000 0.000000 0.300000
0.148669 -0.559635 0.334473 0.300000 0.600000 0.000000
0.252862 -0.239747 -0.006560 0.600000 0.000000 0.300000
0.132628 -0.460646 0.312844 0.300000 0.600000 0.000000
0.052105 -0.377694 0.302064 0.000000 0.500000 0.500000
-0.199650 -0.329916 -0.106173 0.600000 0.000000 0.300000
0.065484 0.290661 -0.770048 0.300000 0.000000 0.600000
-0.151362 0.260049 -0.524346 0.300000 0.000000 0.600000
-0.097213 -0.145237 -0.857343 0.300000 0.000000 0.600000
-0.236509 -0.192286 0.643608 0.300000 0.600000 0.000000
0.263508 -0.476563 0.418987 0.300000 0.600000 0.000000
-0.068393 -0.659382 0.413316 0.300000 0.600000 0.000000
0.009999 0.508956 0.497532 0.000000 1.000000 0.000000
0.237245 -0.266163 0.299890 0.000000 0.500000 0.500000
-0.274829 0.110158 -0.369840 0.300000 0.000000 0.600000
0.210663 -0.092287 0.546341 0.300000 0.600000 0.000000
0.068594 -0.012965 0.549677 0.300000 0.600000 0.000000
-0.239951 -0.398479 0.518994 0.300000 0.600000 0.000000
0.118017 -0.106618 -0.857343 0.300000 0.000000 0.600000
0.205017 -0.142968 -0.371931 0.300000 0.000000 0.600000
0.224798 -0.143124 0.573570 0.300000 0.600000 0.000000
-0.105789 -0.129968 -0.466022 0.600000 0.000000 0.300000
0.034038 -0.186379 -0.011979 0.000000 0.500000 0.500000
0.129579 -0.556630 0.486391 0.300000 0.600000 0.000000
0.084025 -0.182316 -0.009783 0.000000 0.500000 0.500000
-0.055115 0.131174 0.077944 0.600000 0.000000 0.300000
-0.345633 -0.056309 -0.244764 0.600000 0.000000 0.300000
0.230402 -0.316412 0.417864 0.300000 0.600000 0.000000
-0.026935 -0.044311 0.586452 0.300000 0.600000 0.000000
-0.184735 0.461860 0.041721 0.000000 1.000000 0.000000
0.099668 0.300859 -0.223880 0.600000 0.000000 0.300000
0.205485 0.205039 -0.696348 0.300000 0.000000 0.600000
0.322505 -0.399310 0.564894 0.300000 0.600000 0.000000
0.084526 0.034423 -0.477637 0.600000 0.000000 0.300000
-0.203865 -0.137240 0.606010 0.300000 0.600000 0.000000
0.053015 0.270013 0.139399 0.600000 0.000000 0.300000
0.058171 0.130560 0.071520 0.600000 0.000000 0.300000
-0.304506 -0.297960 0.598311 0.300000 0.600000 0.000000
0.159016 0.245110 -0.603996 0.300000 0.000000 0.600000
0.257594 0.213329 -0.128740 0.600000 0.000000 0.300000
-0.172331 0.417119 0.066545 0.000000 1.000000 0.000000
0.060760 -0.370283 -0.234336 0.600000 0.000000 0.300000
0.119870 -0.213456 -0.026620 0.000000 0.500000 0.500000
0.179348 -0.488932 0.254821 0.300000 0.600000 0.000000
-0.064939 0.651912 0.514291 0.000000 1.000000 0.000000
0.160287 -0.210590 -0.399989 0.600000 0.000000 0.300000
-0.335856 -0.164613 -0.114909 0.600000 0.000000 0.300000
-0.000349 0.214348 -0.211452 0.300000 0.000000 0.600000
-0.000125 -0.135031 0.209205 0.600000 0.000000 0.300000
0.245649 -0.397512 0.291349 0.300000 0.600000 0.000000
-0.110246 0.138992 0.007055 0.600000 0.000000 0.300000
0.108583 -0.284717 -0.360257 0.600000 0.000000 0.300000
0.312517 -0.376882 0.464545 0.300000 0.600000 0.000000
0.283466 -0.433838 0.415048 0.300000 0.600000 0.000000
0.139881 -0.191819 0.402566 0.000000 0.500000 0.500000
0.293285 -0.250927 0.370606 0.300000 0.600000 0.000000
-0.111112 0.112230 -0.249226 0.300000 0.000000 0.600000
0.020417 0.386196 -0.152314 0.600000 0.000000 0.300000
-0.241807 -0.330179 0.512500 0.300000 0.600000 0.000000
-0.121760 -0.265846 -0.382222 0.600000 0.000000 0.300000
-0.188733 -0.132367 0.155499 0.600000 0.000000 0.300000
0.060476 0.291279 -0.570932 0.300000 0.000000 0.600000
-0.221454 -0.002152 0.113745 0.000000 0.500000 0.500000
0.289979 -0.281775 0.583141 0.300000 0.600000 0.000000
-0.033634 0.765400 0.236642 0.000000 1.000000 0.000000
-0.059373 -0.381271 -0.173722 0.600000 0.000000 0.300000
0.188198 0.226051 -0.288702 0.600000 0.000000 0.300000
-0.238430 -0.222647 -0.329534 0.600000 0.000000 0.300000
-0.110620 -0.149062 0.584566 0.300000 0.600000 0.000000
0.033994 0.668749 0.219505 0.000000 1.000000 0.000000
0.117415 -0.317014 0.000815 0.000000 0.500000 0.500000
-0.331104 -0.299195 0.377969 0.300000 0.600000 0.000000
0.172684 -0.052386 0.537880 0.300000 0.600000 0.000000
-0.335374 -0.315008 0.469517 0.300000 0.600000 0.000000
-0.227676 -0.273572 0.546325 0.300000 0.600000 0.000000
0.286405 -0.381728 0.362323 0.300000 0.600000 0.000000
-0.081933 0.289239 -0.414136 0.300000 0.000000 0.600000
0.279717 -0.236759 0.648438 0.300000 0.600000 0.000000
0.137809 0.262541 -0.195596 0.300000 0.000000 0.600000
0.109905 -0.187345 0.641212 0.300000 0.600000 0.000000
-0.241675 0.219344 -0.032744 0.600000 0.000000 0.300000
0.233687 -0.097844 0.156556 0.000000 0.500000 0.500000
-0.176757 -0.083314 -0.857343 0.300000 0.000000 0.600000
0.031034 0.305044 -0.249477 0.600000 0.000000 0.300000
0.200963 0.205517 -0.309447 0.600000 0.000000 0.300000
-0.155869 -0.515870 0.434694 0.300000 0.600000 0.000000
-0.126134 -0.052191 0.591982 0.300000 0.600000 0.000000
-0.096464 0.544090 0.590381 0.000000 1.000000 0.000000
0.101155 0.365876 0.159123 0.000000 1.000000 0.000000
-0.022373 0.297604 -0.436396 0.300000 0.000000 0.600000
0.108933 0.567541 0.070119 0.000000 1.000000 0.000000
-0.256688 -0.469548 0.359930 0.300000 0.600000 0.000000
0.226282 -0.430423 0.570040 0.300000 0.600000 0.000000
0.268476 -0.022828 -0.857343 0.300000 0.000000 0.600000
0.220739 0.148930 -0.344885 0.600000 0.000000 0.300000
-0.030464 -0.581123 0.292974 0.300000 0.600000 0.000000
-0.074389 -0.051420 0.216501 0.600000 0.000000 0.300000
-0.082709 0.288937 -0.353490 0.300000 0.000000 0.600000
0.056939 0.611714 0.604428 0.000000 1.000000 0.000000
-0.109436 -0.373762 -0.114473 0.600000 0.000000 0.300000
0.172800 -0.075601 0.578242 0.300000 0.600000 0.000000
0.060064 -0.343716 0.026833 0.600000 0.000000 0.300000
0.031072 0.646308 0.163193 0.000000 1.000000 0.000000
-0.263298 -0.090956 -0.746498 0.300000 0.000000 0.600000
-0.166156 -0.143280 0.690949 0.300000 0.600000 0.000000
-0.259957 0.134821 0.055186 0.600000 0.000000 0.300000
0.203960 0.041909 -0.857343 0.300000 0.000000 0.600000
0.031404 0.918265 -0.020589 0.000000 1.000000 0.000000
0.297316 -0.157794 0.002311 0.600000 0.000000 0.300000
-0.072272 -0.143109 0.602762 0.300000 0.600000 0.000000
-0.034786 -0.295132 -0.070782 0.000000 0.500000 0.500000
0.134361 -0.288400 0.350345 0.000000 0.500000 0.500000
0.077669 -0.208366 -0.023868 0.000000 0.500000 0.500000
-0.076711 -0.304338 -0.067907 0.000000 0.500000 0.500000
0.017853 0.481039 0.611466 0.000000 1.000000 0.000000
-0.230902 0.186348 -0.606013 0.300000 0.000000 0.600000
0.137118 0.024233 0.235398 0.000000 0.500000 0.500000
0.207882 -0.212615 0.471878 0.300000 0.600000 0.000000
-0.167710 0.221096 -0.070599 0.600000 0.000000 0.300000
-0.089559 0.286276 -0.706447 0.300000 0.000000 0.600000
0.011589 0.623626 0.638700 0.000000 1.000000 0.000000
-0.110337 -0.629370 0.416550 0.300000 0.600000 0.000000
-0.154132 0.351886 -0.065523 0.600000 0.000000 0.300000
-0.256285 -0.515858 0.445099 0.300000 0.600000 0.000000
0.351880 -0.053256 -0.147208 0.600000 0.000000 0.300000
0.276594 0.010358 -0.808963 0.300000 0.000000 0.600000
0.037935 -0.538958 0.370505 0.300000 0.600000 0.000000
-0.241910 -0.597726 0.508445 0.300000 0.600000 0.000000
0.269205 0.092061 -0.354731 0.300000 0.000000 0.600000
0.313995 -0.447304 0.539792 0.300000 0.600000 0.000000
-0.029277 0.239601 -0.857343 0.300000 0.000000 0.600000
0.004730 0.298162 -0.228215 0.300000 0.000000 0.600000
-0.214614 -0.032228 -0.427738 0.600000 0.000000 0.300000
-0.200207 0.033085 -0.429937 0.600000 0.000000 0.300000
0.125476 -0.250651 -0.391775 0.600000 0.000000 0.300000
0.220864 -0.182023 0.007592 0.000000 0.500000 0.500000
-0.064060 0.321754 -0.143486 0.600000 0.000000 0.300000
0.218042 -0.382981 0.408573 0.300000 0.600000 0.000000
-0.163528 -0.205386 -0.691712 0.300000 0.000000 0.600000
0.022302 0.529906 0.471706 0.000000 1.000000 0.000000
-0.006711 -0.088714 0.522552 0.300000 0.600000 0.000000
-0.198884 -0.506259 0.515222 0.300000 0.600000 0.000000
0.066858 0.515285 0.571028 0.000000 1.000000 0.000000
0.225107 -0.097978 0.215146 0.000000 0.500000 0.500000
0.272875 -0.485952 0.396783 0.300000 0.600000 0.000000
0.094302 -0.205668 0.692707 0.300000 0.600000 0.000000
-0.019741 0.371604 0.204135 0.000000 1.000000 0.000000
-0.291513 -0.406895 0.390314 0.300000 0.600000 0.000000
0.234033 -0.220667 0.378193 0.000000 0.500000 0.500000
0.025527 -0.340219 0.322327 0.000000 0.500000 0.500000
-0.330467 0.024984 -0.000510 0.600000 0.000000 0.300000
-0.295633 -0.215313 0.468593 0.300000 0.600000 0.000000
0.133218 0.052333 0.189721 0.000000 0.500000 0.500000
0.297229 -0.323564 0.616830 0.300000 0.600000 0.000000
0.207080 0.053332 0.139096 0.600000 0.000000 0.300000
-0.222837 -0.299236 0.177100 0.000000 0.500000 0.500000
0.271896 0.062356 -0.799238 0.300000 0.000000 0.600000
0.022081 0.445043 -0.124560 0.600000 0.000000 0.300000
-0.156529 0.245152 -0.108568 0.600000 0.000000 0.300000
0.013031 0.682093 0.094484 0.000000 1.000000 0.000000
-0.084672 0.868401 -0.034087 0.000000 1.000000 0.000000
0.137307 -0.181496 0.595853 0.300000 0.600000 0.000000
0.241984 0.070913 -0.264510 0.300000 0.000000 0.600000
0.169110 -0.009685 0.245901 0.000000 0.500000 0.500000
-0.117911 0.784632 0.207315 0.000000 1.000000 0.000000
-0.070115 0.854789 0.043677 0.000000 1.000000 0.000000
0.136455 -0.073193 0.466708 0.300000 0.600000 0.000000
-0.066690 0.724438 0.150109 0.000000 1.000000 0.000000
-0.355138 -0.004960 -0.203525 0.600000 0.000000 0.300000
-0.155279 0.238037 0.027571 0.600000 0.000000 0.300000
-0.241131 -0.357905 0.517892 0.300000 0.600000 0.000000
0.068685 0.595352 -0.045936 0.000000 1.000000 0.000000
-0.087839 0.811597 0.223177 0.000000 1.000000 0.000000
-0.133023 0.537343 -0.022473 0.000000 1.000000 0.000000
-0.066866 0.515618 0.632648 0.000000 1.000000 0.000000
-0.084256 -0.223746 -0.415680 0.300000 0.000000 0.600000
0.149902 0.253013 -0.316279 0.300000 0.000000 0.600000
-0.228579 -0.257055 0.035292 0.600000 0.000000 0.300000
-0.052641 -0.404467 0.287588 0.000000 0.500000 0.500000
-0.091972 0.299532 -0.169405 0.600000 0.000000 0.300000
-0.159016 -0.578498 0.522140 0.300000 0.600000 0.000000
-0.088263 -0.684722 0.456883 0.300000 0.600000 0.000000
0.038552 -0.648519 0.380369 0.300000 0.600000 0.000000
-0.177462 0.554036 0.098949 0.000000 1.000000 0.000000
0.002135 0.042171 0.301052 0.000000 0.500000 0.500000
0.321650 -0.351535 0.564616 0.300000 0.600000 0.000000
-0.280498 -0.030214 -0.393145 0.300000 0.000000 0.600000
0.251942 0.030876 -0.857343 0.300000 0.000000 0.600000
-0.253400 0.153635 -0.318830 0.600000 0.000000 0.300000
-0.186169 -0.120052 0.434202 0.000000 0.500000 0.500000
-0.195798 -0.128117 0.663680 0.300000 0.600000 0.000000
-0.203222 -0.333675 0.178093 0.000000 0.500000 0.500000
0.232405 -0.126070 -0.700124 0.300000 0.000000 0.600000
0.136552 -0.270019 -0.362714 0.600000 0.000000 0.300000
0.331825 -0.146767 -0.113931 0.600000 0.000000 0.300000
-0.076963 0.090917 0.137953 0.000000 0.500000 0.500000
0.181546 -0.286663 0.351284 0.000000 0.500000 0.500000
-0.279883 -0.002291 -0.291589 0.300000 0.000000 0.600000
-0.240409 -0.299801 0.361463 0.300000 0.600000 0.000000
0.038866 0.813485 0.126377 0.000000 1.000000 0.000000
0.186120 0.057124 -0.269610 0.300000 0.000000 0.600000
-0.188731 -0.170277 -0.416130 0.300000 0.000000 0.600000
0.113715 0.399032 -0.091487 0.600000 0.000000 0.300000
-0.095909 0.203233 -0.215563 0.300000 0.000000 0.600000
-0.081852 0.629573 0.496875 0.000000 1.000000 0.000000
-0.249561 0.227056 -0.095951 0.600000 0.000000 0.300000
0.179628 0.229281 -0.657298 0.300000 0.000000 0.600000
-0.289668 -0.250378 -0.137244 0.600000 0.000000 0.300000
-0.243642 -0.235848 0.165753 0.000000 0.500000 0.500000
-0.013214 -0.194741 0.400986 0.000000 0.500000 0.500000
0.134135 -0.134551 0.515299 0.300000 0.600000 0.000000
-0.096405 0.194600 0.127800 0.600000 0.000000 0.300000
-0.158491 0.381117 0.086685 0.600000 0.000000 0.300000
0.003704 0.041651 0.216165 0.600000 0.000000 0.300000
-0.298212 -0.230233 -0.179266 0.600000 0.000000 0.300000
-0.197623 0.182104 -0.348983 0.600000 0.000000 0.300000
0.007709 0.694842 0.214836 0.000000 1.000000 0.000000
-0.163550 -0.215499 -0.846931 0.300000 0.000000 0.600000
0.114563 0.271296 -0.523301 0.300000 0.000000 0.600000
0.186068 -0.121760 0.604033 0.300000 0.600000 0.000000
0.073099 0.682727 0.220715 0.000000 1.000000 0.000000
-0.325458 -0.421351 0.520461 0.300000 0.600000 0.000000
0.221395 -0.301416 -0.184853 0.600000 0.000000 0.300000
-0.187510 0.527697 0.062320 0.000000 1.000000 0.000000
0.170064 0.032337 -0.443641 0.600000 0.000000 0.300000
0.166560 -0.163375 0.504534 0.300000 0.600000 0.000000
-0.230618 0.195547 -0.301476 0.600000 0.000000 0.300000
-0.224608 0.193474 -0.759285 0.300000 0.000000 0.600000
0.149676 0.175280 -0.070409 0.600000 0.000000 0.300000
-0.153029 0.273665 0.049800 0.600000 0.000000 0.300000
-0.203361 -0.275619 -0.308672 0.600000 0.000000 0.300000
0.030213 0.727730 0.314122 0.000000 1.000000 0.000000
-0.060524 -0.110803 0.446371 0.000000 0.500000 0.500000
-0.035348 0.264071 -0.857343 0.300000 0.000000 0.600000
0.228768 0.208019 -0.263397 0.600000 0.000000 0.300000
-0.053729 -0.226537 -0.381027 0.300000 0.000000 0.600000
-0.086368 -0.048285 0.438077 0.000000 0.500000 0.500000
-0.056174 -0.233757 -0.037597 0.000000 0.500000 0.500000
-0.097313 -0.357629 -0.017628 0.600000 0.000000 0.300000
0.017690 0.851144 -0.215762 0.000000 1.000000 0.000000
0.247318 -0.130376 0.477856 0.300000 0.600000 0.000000
0.220809 -0.235592 0.434914 0.300000 0.600000 0.000000
-0.019571 -0.066822 0.481226 0.300000 0.600000 0.000000
-0.028923 0.686787 0.086666 0.000000 1.000000 0.000000
0.012799 0.674495 0.273818 0.000000 1.000000 0.000000
0.240537 -0.141682 0.122243 0.000000 0.500000 0.500000
-0.056607 0.313131 -0.216445 0.600000 0.000000 0.300000
-0.116175 -0.101472 -0.328277 0.300000 0.000000 0.600000
0.044809 -0.045511 0.064187 0.000000 0.500000 0.500000
-0.247017 -0.143905 0.209101 0.000000 0.500000 0.500000
0.162687 0.451698 0.035965 0.000000 1.000000 0.000000
-0.143740 -0.082514 0.626803 0.300000 0.600000 0.000000
-0.246110 -0.286269 -0.057571 0.600000 0.000000 0.300000
-0.162124 0.251808 -0.701364 0.300000 0.000000 0.600000
0.230165 -0.127067 -0.665375 0.300000 0.000000 0.600000
0.318813 -0.319922 0.375761 0.300000 0.600000 0.000000
-0.119784 -0.215865 0.389565 0.000000 0.500000 0.500000
-0.068411 0.584392 0.089097 0.000000 1.000000 0.000000
0.044377 0.293267 -0.627078 0.300000 0.000000 0.600000
-0.063050 -0.123900 0.726801 0.300000 0.600000 0.000000
-0.055769 0.759805 0.076015 0.000000 1.000000 0.000000
-0.072189 0.796294 0.043552 0.000000 1.000000 0.000000
-0.014176 0.765124 0.000200 0.000000 1.000000 0.000000
-0.038532 -0.193233 -0.015685 0.000000 0.500000 0.500000
-0.305176 -0.338480 0.357509 0.300000 0.600000 0.000000
0.270479 -0.024916 -0.521796 0.300000 0.000000 0.600000
-0.271593 -0.061360 -0.500665 0.300000 0.000000 0.600000
-0.114870 0.276443 -0.189774 0.300000 0.000000 0.600000
-0.136311 0.048725 0.188716 0.600000 0.000000 0.300000
0.029778 -0.597595 0.475408 0.300000 0.600000 0.000000
0.262866 -0.265740 -0.159904 0.600000 0.000000 0.300000
0.026618 -0.014215 -0.295999 0.300000 0.000000 0.600000
-0.048113 -0.556624 0.215282 0.300000 0.600000 0.000000
0.019641 0.108890 0.147672 0.000000 0.500000 0.500000
-0.274527 0.112646 -0.281930 0.300000 0.000000 0.600000
-0.285496 0.045540 -0.737629 0.300000 0.000000 0.600000
0.132177 0.013888 -0.463831 0.600000 0.000000 0.300000
0.244805 -0.173801 -0.349540 0.600000 0.000000 0.300000
-0.088718 -0.111809 0.534450 0.300000 0.600000 0.000000
-0.059511 -0.660373 0.477870 0.300000 0.600000 0.000000
-0.286914 0.182610 -0.095088 0.600000 0.000000 0.300000
0.014226 0.766465 0.077508 0.000000 1.000000 0.000000
0.167818 -0.179204 -0.441984 0.300000 0.000000 0.600000
-0.039212 0.295623 -0.655509 0.300000 0.000000 0.600000
-0.269006 0.122609 -0.400594 0.300000 0.000000 0.600000
0.103074 0.276123 -0.384333 0.300000 0.000000 0.600000
-0.222371 -0.179266 -0.008134 0.000000 0.500000 0.500000
-0.314196 -0.347413 0.413045 0.300000 0.600000 0.000000
-0.202909 -0.107063 0.607446 0.300000 0.600000 0.000000
-0.079335 -0.604192 0.350782 0.300000 0.600000 0.000000
-0.068136 0.017775 0.331025 0.000000 0.500000 0.500000
-0.114276 -0.585947 0.507577 0.300000 0.600000 0.000000
0.295501 0.018846 -0.324212 0.600000 0.000000 0.300000
0.286372 0.039969 0.060624 0.600000 0.000000 0.300000
0.223674 -0.385476 0.463579 0.300000 0.600000 0.000000
-0.238995 -0.460426 0.257331 0.300000 0.600000 0.000000
-0.212253 -0.171933 0.658739 0.300000 0.600000 0.000000
0.146425 0.254897 -0.556561 0.300000 0.000000 0.600000
-0.056719 -0.510610 0.324211 0.300000 0.600000 0.000000
0.166215 0.008426 0.217690 0.000000 0.500000 0.500000
-0.247110 -0.138587 0.041259 0.000000 0.500000 0.500000
-0.193023 -0.496666 0.268643 0.300000 0.600000 0.000000
0.098273 -0.585373 0.498780 0.300000 0.600000 0.000000
0.004094 -0.632246 0.380991 0.300000 0.600000 0.000000
0.133611 0.112724 -0.434039 0.600000 0.000000 0.300000
0.039611 0.773783 0.150551 0.000000 1.000000 0.000000
0.056593 0.195437 0.102693 0.600000 0.000000 0.300000
0.034679 0.147997 -0.235995 0.300000 0.000000 0.600000
-0.119973 -0.098937 0.646640 0.300000 0.600000 0.000000
0.139858 0.080631 -0.260915 0.300000 0.000000 0.600000
-0.240767 -0.528224 0.367131 0.300000 0.600000 0.000000
0.025276 0.703153 0.196261 0.000000 1.000000 0.000000
-0.163992 0.066982 0.125012 0.000000 0.500000 0.500000
0.070857 0.101838 0.164111 0.000000 0.500000 0.500000
-0.002402 -0.033260 0.488298 0.300000 0.600000 0.000000
-0.209916 -0.083809 0.302104 0.000000 0.500000 0.500000
-0.326508 0.104878 -0.057962 0.600000 0.000000 0.300000
0.201499 -0.009902 -0.427046 0.600000 0.000000 0.300000
-0.116497 0.682428 0.198107 0.000000 1.000000 0.000000
0.150145 -0.131810 -0.857343 0.300000 0.000000 0.600000
0.063608 -0.248977 -0.736165 0.300000 0.000000 0.600000
-0.052158 0.456163 -0.088144 0.000000 1.000000 0.000000
-0.106699 0.585901 -0.030528 0.000000 1.000000 0.000000
-0.310757 -0.304230 0.649052 0.300000 0.600000 0.000000
-0.240751 0.175001 -0.539882 0.300000 0.000000 0.600000
0.279401 -0.415134 0.390176 0.300000 0.600000 0.000000
0.277606 -0.483548 0.513711 0.300000 0.600000 0.000000
0.155436 -0.102295 0.602955 0.300000 0.600000 0.000000
0.040881 0.700215 0.362321 0.000000 1.000000 0.000000
-0.013221 -0.347904 -0.307060 0.600000 0.000000 0.300000
-0.153323 -0.540737 0.296026 0.300000 0.600000 0.000000
0.098905 -0.109131 0.708835 0.300000 0.600000 0.000000
0.155619 0.223056 -0.330857 0.600000 0.000000 0.300000
-0.082663 0.469814 -0.113030 0.000000 1.000000 0.000000
0.017061 0.296640 -0.318273 0.300000 0.000000 0.600000
0.109375 -0.546947 0.442171 0.300000 0.600000 0.000000
0.129178 0.202855 0.040986 0.600000 0.000000 0.300000
0.041406 -0.338201 0.045586 0.600000 0.000000 0.300000
0.003770 -0.099127 -0.488736 0.600000 0.000000 0.300000
-0.278979 -0.052467 -0.730284 0.300000 0.000000 0.600000
-0.165603 -0.530412 0.236450 0.300000 0.600000 0.000000
-0.301602 -0.013285 -0.336481 0.600000 0.000000 0.300000
0.326372 0.038557 -0.022183 0.600000 0.000000 0.300000
0.141526 -0.073857 0.048861 0.000000 0.500000 0.500000
-0.153902 -0.638756 0.470155 0.300000 0.600000 0.000000
-0.205266 0.132334 -0.857343 0.300000 0.000000 0.600000
-0.101252 -0.096243 0.689112 0.300000 0.600000 0.000000
0.210233 -0.105751 -0.329860 0.300000 0.000000 0.600000
-0.094523 -0.134531 0.016055 0.000000 0.500000 0.500000
-0.221131 -0.108341 -0.330818 0.300000 0.000000 0.600000
0.027957 -0.203245 -0.451279 0.600000 0.000000 0.300000
0.102158 0.276657 -0.316851 0.300000 0.000000 0.600000
-0.188747 0.233340 -0.422269 0.300000 0.000000 0.600000
0.085670 0.098861 -0.457862 0.600000 0.000000 0.300000
0.240015 -0.011827 -0.295116 0.300000 0.000000 0.600000
0.337112 -0.128386 -0.174398 0.600000 0.000000 0.300000
0.069670 -0.033789 0.599639 0.300000 0.600000 0.000000
-0.024076 -0.622362 0.329335 0.300000 0.600000 0.000000
0.096685 -0.668148 0.442937 0.300000 0.600000 0.000000
0.323779 -0.319752 0.468394 0.300000 0.600000 0.000000
-0.146624 -0.076802 0.047268 0.000000 0.500000 0.500000
-0.119523 -0.019004 0.204566 0.600000 0.000000 0.300000
-0.039906 -0.047279 0.636760 0.300000 0.600000 0.000000
0.139100 0.261303 -0.259768 0.300000 0.000000 0.600000
-0.257285 -0.485687 0.395335 0.300000 0.600000 0.000000
0.275950 0.033366 -0.737817 0.300000 0.000000 0.600000
0.282313 -0.199264 0.398540 0.300000 0.600000 0.000000
-0.242824 -0.159588 0.567846 0.300000 0.600000 0.000000
0.239883 -0.113739 -0.635228 0.300000 0.000000 0.600000
0.118913 -0.517519 0.400167 0.300000 0.600000 0.000000
-0.100230 0.120398 0.046752 0.600000 0.000000 0.300000
-0.162308 0.253038 -0.199910 0.300000 0.000000 0.600000
0.233168 -0.296964 -0.114853 0.600000 0.000000 0.300000
-0.178562 -0.162449 0.000959 0.000000 0.500000 0.500000
0.272128 0.140096 -0.282587 0.600000 0.000000 0.300000
-0.328002 0.102057 -0.211595 0.600000 0.000000 0.300000
-0.131137 -0.539084 0.273649 0.300000 0.600000 0.000000
-0.210750 -0.570348 0.526547 0.300000 0.600000 0.000000
-0.095327 0.578561 0.575808 0.000000 1.000000 0.000000
-0.245834 -0.253493 0.233393 0.000000 0.500000 0.500000
0.032263 -0.236691 -0.504967 0.300000 0.000000 0.600000
-0.075742 0.500847 0.593040 0.000000 1.000000 0.000000
-0.122082 0.207313 0.068947 0.600000 0.000000 0.300000
0.276156 -0.165115 0.436314 0.300000 0.600000 0.000000
0.094522 0.247289 0.064560 0.600000 0.000000 0.300000
-0.042404 -0.076775 0.691164 0.300000 0.600000 0.000000
0.093845 -0.618720 0.395797 0.300000 0.600000 0.000000
-0.286988 -0.550505 0.531646 0.300000 0.600000 0.000000
-0.315064 -0.408840 0.583591 0.300000 0.600000 0.000000
-0.207814 -0.582247 0.458016 0.300000 0.600000 0.000000
0.052332 0.531690 0.637459 0.000000 1.000000 0.000000
-0.096951 -0.080130 -0.481247 0.600000 0.000000 0.300000
-0.257386 -0.473437 0.578946 0.300000 0.600000 0.000000
0.056965 0.288687 -0.280726 0.600000 0.000000 0.300000
-0.295573 -0.169619 -0.292465 0.600000 0.000000 0.300000
0.157478 -0.115268 -0.446702 0.600000 0.000000 0.300000
-0.138274 -0.574865 0.300367 0.300000 0.600000 0.000000
-0.133440 -0.232291 -0.827486 0.300000 0.000000 0.600000
-0.239168 0.098996 -0.857343 0.300000 0.000000 0.600000
-0.052605 0.787460 -0.022003 0.000000 1.000000 0.000000
-0.347535 0.032739 -0.048282 0.600000 0.000000 0.300000
0.157359 0.200271 -0.075624 0.600000 0.000000 0.300000
0.163357 0.496866 0.147704 0.000000 1.000000 0.000000
-0.191798 -0.039109 0.489809 0.300000 0.600000 0.000000
0.259877 -0.459046 0.586727 0.300000 0.600000 0.000000
-0.093841 -0.055248 -0.485780 0.600000 0.000000 0.300000
-0.163103 0.515612 0.146742 0.000000 1.000000 0.000000
-0.095967 -0.340871 -0.293187 0.600000 0.000000 0.300000
-0.142255 -0.049530 0.479501 0.300000 0.600000 0.000000
-0.239584 -0.281102 0.454274 0.300000 0.600000 0.000000
0.010989 0.699038 0.436131 0.000000 1.000000 0.000000
0.229265 -0.315338 0.493058 0.300000 0.600000 0.000000
-0.036988 -0.466370 0.216431 0.000000 0.500000 0.500000
0.046755 0.553591 0.152652 0.000000 1.000000 0.000000
-0.064122 0.599663 -0.073898 0.000000 1.000000 0.000000
0.103250 0.513707 0.185042 0.000000 1.000000 0.000000
-0.110671 -0.132950 0.554701 0.300000 0.600000 0.000000
0.177167 0.169107 -0.369875 0.600000 0.000000 0.300000
-0.294816 -0.204780 -0.013974 0.600000 0.000000 0.300000
0.234828 -0.086200 0.116813 0.000000 0.500000 0.500000
-0.041003 -0.063663 0.054372 0.000000 0.500000 0.500000
-0.020830 -0.605070 0.290364 0.300000 0.600000 0.000000
0.031914 -0.229813 -0.408798 0.300000 0.000000 0.600000
0.197024 -0.167579 -0.632207 0.300000 0.000000 0.600000
0.300541 -0.480706 0.522726 0.300000 0.600000 0.000000
0.224085 -0.125961 0.591778 0.300000 0.600000 0.000000
0.084927 0.283248 -0.847972 0.300000 0.000000 0.600000
-0.183418 -0.423655 0.318588 0.300000 0.600000 0.000000
0.234773 -0.179769 0.100634 0.000000 0.500000 0.500000
-0.312571 -0.172843 0.430616 0.300000 0.600000 0.000000
0.304113 0.142386 -0.182563 0.600000 0.000000 0.300000
-0.074052 0.297171 -0.013461 0.600000 0.000000 0.300000
0.278964 -0.146255 0.451616 0.300000 0.600000 0.000000
-0.202963 -0.399974 0.290017 0.300000 0.600000 0.000000
0.188805 0.259058 -0.212120 0.600000 0.000000 0.300000
0.018183 0.758625 0.247473 0.000000 1.000000 0.000000
0.041702 0.320320 -0.165459 0.600000 0.000000 0.300000
0.102669 -0.022681 0.552681 0.300000 0.600000 0.000000
-0.012874 0.639964 0.230449 0.000000 1.000000 0.000000
0.312137 -0.351795 0.349883 0.300000 0.600000 0.000000
0.040705 -0.047213 0.592884 0.300000 0.600000 0.000000
-0.148740 0.066391 0.156887 0.000000 0.500000 0.500000
-0.069713 0.828457 -0.103667 0.000000 1.000000 0.000000
-0.122087 -0.226583 -0.679233 0.300000 0.000000 0.600000
0.271323 -0.012282 -0.319352 0.300000 0.000000 0.600000
-0.033980 0.820623 0.111289 0.000000 1.000000 0.000000
-0.179483 -0.451346 0.362026 0.300000 0.600000 0.000000
-0.324725 0.073262 -0.013784 0.600000 0.000000 0.300000
-0.276674 -0.260893 0.652946 0.300000 0.600000 0.000000
0.176875 0.192549 -0.857343 0.300000 0.000000 0.600000
-0.028341 0.648441 0.585448 0.000000 1.000000 0.000000
-0.122509 -0.316519 -0.005492 0.000000 0.500000 0.500000
-0.261846 -0.226966 -0.288693 0.600000 0.000000 0.300000
0.009991 0.323328 -0.097546 0.600000 0.000000 0.300000
-0.072502 -0.487025 0.242948 0.300000 0.600000 0.000000
0.140229 -0.324798 0.051923 0.000000 0.500000 0.500000
0.277605 -0.167284 0.518941 0.300000 0.600000 0.000000
-0.064092 0.465015 0.236276 0.000000 1.000000 0.000000
-0.357142 -0.033983 -0.212236 0.600000 0.000000 0.300000
0.024261 0.782655 0.205884 0.000000 1.000000 0.000000
-0.253679 -0.210073 0.051833 0.600000 0.000000 0.300000
0.194053 -0.553620 0.389600 0.300000 0.600000 0.000000
0.013409 -0.286182 0.118182 0.600000 0.000000 0.300000
0.048526 0.510117 -0.091143 0.000000 1.000000 0.000000
0.027332 -0.041172 0.484021 0.300000 0.600000 0.000000
-0.252248 -0.114228 -0.693910 0.300000 0.000000 0.600000
0.170946 -0.164068 0.740787 0.300000 0.600000 0.000000
0.268387 -0.041703 -0.544924 0.300000 0.000000 0.600000
0.250437 0.114922 -0.248230 0.300000 0.000000 0.600000
0.033064 -0.306692 -0.076850 0.000000 0.500000 0.500000
0.151146 0.391761 0.078110 0.600000 0.000000 0.300000
-0.150684 0.261284 -0.241692 0.300000 0.000000 0.600000
-0.165802 -0.283780 -0.000888 0.000000 0.500000 0.500000
-0.257222 -0.557652 0.467217 0.300000 0.600000 0.000000
0.236013 -0.225878 0.676981 0.300000 0.600000 0.000000
-0.028739 -0.638826 0.489520 0.300000 0.600000 0.000000
0.038173 -0.607070 0.316916 0.300000 0.600000 0.000000
-0.109634 0.767173 0.244752 0.000000 1.000000 0.000000
-0.244780 -0.378101 0.630494 0.300000 0.600000 0.000000
-0.325822 0.003929 -0.289256 0.600000 0.000000 0.300000
0.180944 -0.070785 -0.441020 0.600000 0.000000 0.300000
0.276551 -0.058954 -0.352815 0.600000 0.000000 0.300000
-0.198167 0.140569 -0.386884 0.600000 0.000000 0.300000
-0.066860 0.426785 -0.025428 0.000000 1.000000 0.000000
-0.188703 -0.589136 0.434980 0.300000 0.600000 0.000000
0.220494 0.245127 -0.148998 0.600000 0.000000 0.300000
-0.088593 -0.595374 0.292782 0.300000 0.600000 0.000000
-0.035271 0.294047 -0.278265 0.600000 0.000000 0.300000
0.214991 -0.168914 0.680954 0.300000 0.600000 0.000000
0.042911 0.556843 0.092955 0.000000 1.000000 0.000000
0.241583 -0.111613 -0.384734 0.600000 0.000000 0.300000
-0.209126 0.243955 -0.032040 0.600000 0.000000 0.300000
-0.113582 -0.228939 -0.034992 0.000000 0.500000 0.500000
0.221970 -0.144241 0.632625 0.300000 0.600000 0.000000
0.009834 0.085031 -0.857343 0.300000 0.000000 0.600000
-0.326818 -0.327808 0.624825 0.300000 0.600000 0.000000
-0.310222 -0.355740 0.582181 0.300000 0.600000 0.000000
-0.240040 -0.129812 0.519962 0.300000 0.600000 0.000000
0.277574 0.026625 -0.494383 0.300000 0.000000 0.600000
-0.110431 0.024185 -0.474935 0.600000 0.000000 0.300000
-0.162891 -0.092825 0.638815 0.300000 0.600000 0.000000
0.164890 -0.325549 -0.019348 0.600000 0.000000 0.300000
-0.319553 -0.295660 0.578097 0.300000 0.600000 0.000000
0.283471 -0.195656 0.433088 0.300000 0.600000 0.000000
0.021539 -0.002401 0.087497 0.000000 0.500000 0.500000
0.275539 0.048113 -0.314209 0.300000 0.000000 0.600000
-0.166208 0.332163 0.031197 0.600000 0.000000 0.300000
-0.197549 0.224574 -0.708769 0.300000 0.000000 0.600000
-0.297829 -0.251993 0.561072 0.300000 0.600000 0.000000
-0.089522 -0.145677 0.427515 0.000000 0.500000 0.500000
0.174740 -0.588255 0.516865 0.300000 0.600000 0.000000
0.065588 -0.154193 0.005423 0.000000 0.500000 0.500000
-0.064280 0.150677 -0.017887 0.600000 0.000000 0.300000
0.317243 -0.247485 0.379931 0.300000 0.600000 0.000000
0.148480 -0.575237 0.523903 0.300000 0.600000 0.000000
0.080774 -0.334049 0.325663 0.000000 0.500000 0.500000
0.049994 -0.241061 -0.857343 0.300000 0.000000 0.600000
-0.223414 0.196702 -0.521219 0.300000 0.000000 0.600000
0.157263 -0.345754 -0.089541 0.600000 0.000000 0.300000
0.137715 -0.349118 -0.056043 0.600000 0.000000 0.300000
0.255210 -0.519263 0.463717 0.300000 0.600000 0.000000
-0.003652 0.715069 0.073848 0.000000 1.000000 0.000000
-0.066763 0.119010 0.184571 0.600000 0.000000 0.300000
-0.005286 -0.342453 -0.021327 0.000000 0.500000 0.500000
-0.105393 0.603795 -0.007276 0.000000 1.000000 0.000000
-0.282856 -0.026999 -0.765578 0.300000 0.000000 0.600000
-0.016489 0.002273 0.549659 0.300000 0.600000 0.000000
-0.080097 0.516278 0.179554 0.000000 1.000000 0.000000
0.017910 0.253630 -0.196921 0.300000 0.000000 0.600000
-0.261286 0.214325 -0.184637 0.600000 0.000000 0.300000
-0.183211 -0.045012 -0.857343 0.300000 0.000000 0.600000
-0.016697 -0.651099 0.410624 0.300000 0.600000 0.000000
0.136000 -0.552578 0.308189 0.300000 0.600000 0.000000
-0.198236 0.221004 0.028441 0.600000 0.000000 0.300000
-0.217832 -0.427579 0.434024 0.300000 0.600000 0.000000
0.111654 0.272690 -0.423100 0.300000 0.000000 0.600000
-0.238337 0.089178 -0.382037 0.600000 0.000000 0.300000
0.019091 -0.252807 0.369590 0.000000 0.500000 0.500000
-0.101327 -0.198568 0.686917 0.300000 0.600000 0.000000
0.081621 0.324696 0.150444 0.600000 0.000000 0.300000
0.056245 0.198427 -0.119823 0.600000 0.000000 0.300000
-0.167493 -0.171193 0.726410 0.300000 0.600000 0.000000
-0.283892 -0.005863 0.086428 0.600000 0.000000 0.300000
0.231465 -0.427060 0.275372 0.300000 0.600000 0.000000
0.228752 -0.323213 0.308750 0.000000 0.500000 0.500000
0.271976 0.072212 -0.367170 0.300000 0.000000 0.600000
-0.173811 -0.128771 -0.439053 0.600000 0.000000 0.300000
-0.133391 0.327519 -0.113885 0.600000 0.000000 0.300000
0.171912 -0.348857 0.317656 0.000000 0.500000 0.500000
0.214301 0.087567 -0.857343 0.300000 0.000000 0.600000
0.010565 -0.027995 0.073658 0.000000 0.500000 0.500000
-0.025966 0.744191 0.121395 0.000000 1.000000 0.000000
0.209937 -0.152220 -0.657652 0.300000 0.000000 0.600000
-0.076003 0.795024 0.256754 0.000000 1.000000 0.000000
0.157101 -0.078510 0.601629 0.300000 0.600000 0.000000
-0.287250 -0.099784 0.074714 0.600000 0.000000 0.300000
-0.286944 -0.266134 0.604275 0.300000 0.600000 0.000000
0.223473 -0.555248 0.455162 0.300000 0.600000 0.000000
-0.029747 0.169834 -0.227918 0.300000 0.000000 0.600000
-0.113952 0.308937 -0.113956 0.600000 0.000000 0.300000
-0.149010 0.523621 -0.010195 0.000000 1.000000 0.000000
-0.315631 -0.325480 0.429876 0.300000 0.600000 0.000000
0.002742 0.268000 -0.333620 0.600000 0.000000 0.300000
0.285912 0.113893 -0.282142 0.600000 0.000000 0.300000
-0.112211 0.066716 0.124868 0.000000 0.500000 0.500000
0.087205 -0.215558 -0.373080 0.300000 0.000000 0.600000
-0.266941 -0.077485 -0.626423 0.300000 0.000000 0.600000
-0.233036 -0.293677 0.218589 0.000000 0.500000 0.500000
-0.247139 -0.045740 -0.401416 0.600000 0.000000 0.300000
0.045271 -0.349778 -0.288762 0.600000 0.000000 0.300000
-0.256361 -0.276895 0.356565 0.300000 0.600000 0.000000
0.008446 0.231269 -0.857343 0.300000 0.000000 0.600000
-0.054643 -0.163406 0.417929 0.000000 0.500000 0.500000
0.251754 0.133247 -0.667208 0.300000 0.000000 0.600000
0.040190 -0.611120 0.342737 0.300000 0.600000 0.000000
-0.027759 0.324032 -0.109377 0.600000 0.000000 0.300000
0.068025 0.290249 -0.521070 0.300000 0.000000 0.600000
0.027358 0.701810 0.402445 0.000000 1.000000 0.000000
-0.247155 -0.035549 -0.303891 0.300000 0.000000 0.600000
0.217488 -0.148310 0.346906 0.000000 0.500000 0.500000
