ply
format ascii 1.0
element vertex 1274
property float x
property float y
property float z
property uchar red
property uchar green
property uchar blue
end_header
-0.196302 -0.139249 0.670817 76 153 0
0.193747 0.255804 -0.208843 153 0 76
-0.253697 -0.249669 0.699937 76 153 0
0.251809 -0.452645 0.345960 76 153 0
0.088141 0.055777 -0.857343 76 0 153
0.052523 0.501273 0.211587 0 255 0
0.029316 0.527292 0.156040 0 255 0
0.100391 0.087807 0.164340 0 127 127
0.015170 0.633563 0.294076 0 255 0
0.012181 -0.086697 0.520053 76 153 0
-0.244119 -0.297846 0.288038 0 127 127
-0.281086 0.080828 -0.650725 76 0 153
-0.115095 0.750354 0.242961 0 255 0
0.049710 0.154964 -0.233418 76 0 153
0.293136 -0.332242 0.335933 76 153 0
0.226074 -0.337822 0.396916 76 153 0
-0.260261 0.056315 -0.371943 153 0 76
-0.076494 0.657193 0.143333 0 255 0
-0.222931 -0.114153 -0.857343 76 0 153
-0.062679 -0.287051 0.351074 0 127 127
-0.012730 -0.169963 0.414383 0 127 127
0.269434 -0.031983 -0.499523 76 0 153
0.240054 -0.181170 0.587325 76 153 0
-0.045994 -0.174190 0.740748 76 153 0
-0.004090 0.720680 0.382273 0 255 0
0.241352 -0.101135 -0.449150 76 0 153
0.340829 0.052009 -0.169518 153 0 76
-0.273308 -0.178736 0.514978 76 153 0
0.155426 0.206357 -0.086016 153 0 76
-0.311930 -0.273941 0.392209 76 153 0
-0.121613 -0.327103 0.013302 0 127 127
0.204171 0.205454 -0.800540 76 0 153
-0.093124 -0.311031 0.338108 0 127 127
-0.091768 0.194263 0.089036 153 0 76
-0.028240 0.662684 0.175542 0 255 0
0.137409 -0.520794 0.257782 76 153 0
0.304467 -0.198306 0.400287 76 153 0
0.056285 0.593995 -0.049819 0 255 0
-0.176328 -0.178520 -0.857343 76 0 153
0.049496 0.693355 0.213488 0 255 0
-0.235689 0.130286 0.084123 153 0 76
-0.335127 0.081982 -0.220019 153 0 76
0.040645 0.118113 -0.857343 76 0 153
-0.070777 -0.045184 0.618282 76 153 0
-0.250062 -0.198357 0.627686 76 153 0
-0.014352 -0.388142 -0.105307 153 0 76
0.256571 -0.047608 0.108940 153 0 76
-0.112428 0.116950 -0.446742 153 0 76
0.004348 0.346870 0.173942 0 255 0
0.156097 0.198370 -0.039913 153 0 76
-0.180972 -0.115176 0.439423 0 127 127
-0.252632 0.155221 -0.798940 76 0 153
-0.037213 -0.314077 0.336461 0 127 127
0.255073 0.213113 -0.159451 153 0 76
-0.055049 -0.018360 0.529494 76 153 0
-0.099456 0.802141 0.220793 0 255 0
0.008370 0.039873 0.110355 0 127 127
-0.225268 -0.148841 0.644508 76 153 0
-0.353693 0.026869 -0.182672 153 0 76
0.255510 -0.247617 0.700101 76 153 0
0.199621 -0.319451 0.333556 0 127 127
-0.039188 0.216432 -0.857343 76 0 153
0.177034 0.106007 0.139383 153 0 76
-0.116372 -0.563122 0.259886 76 153 0
0.260227 0.114305 -0.593687 76 0 153
-0.077928 -0.364254 0.043966 0 127 127
-0.160974 -0.246723 -0.376496 153 0 76
0.246365 -0.287299 -0.117658 153 0 76
0.134438 0.286750 -0.050062 153 0 76
-0.251698 -0.121630 0.485736 76 153 0
-0.006367 -0.275890 0.357109 0 127 127
0.276827 0.010355 -0.854430 76 0 153
0.157884 0.499024 0.155118 0 255 0
0.069280 0.433396 -0.039542 0 255 0
-0.211195 -0.410460 0.284347 76 153 0
-0.005449 0.612051 0.319694 0 255 0
-0.030940 0.773396 0.216495 0 255 0
-0.152187 -0.492696 0.239882 76 153 0
-0.053864 0.061042 0.121801 0 127 127
-0.041786 -0.564836 0.417121 76 153 0
0.228991 -0.300228 0.483680 76 153 0
0.124048 0.232652 0.067483 153 0 76
-0.091777 0.226655 -0.180083 153 0 76
-0.182961 0.095809 -0.255300 76 0 153
-0.092762 -0.582069 0.273613 76 153 0
-0.118137 -0.007090 0.084962 0 127 127
0.226530 -0.121878 0.517422 76 153 0
0.268488 -0.218041 -0.267288 153 0 76
0.260189 -0.203852 0.645941 76 153 0
0.042368 0.122336 -0.457244 153 0 76
-0.070795 0.580022 0.095079 0 255 0
0.196770 -0.033958 0.160736 0 127 127
-0.211564 -0.475009 0.256649 76 153 0
-0.203045 -0.192558 -0.390512 153 0 76
-0.092870 0.438628 0.216378 0 255 0
0.012068 0.602589 0.342980 0 255 0
-0.069756 0.787367 0.101990 0 255 0
-0.284361 -0.164090 0.428580 76 153 0
0.186097 -0.308772 -0.253486 153 0 76
-0.193444 0.197019 0.064914 153 0 76
0.033520 0.844892 -0.194092 0 255 0
-0.032356 0.296314 -0.371774 76 0 153
-0.149742 0.034151 0.214896 0 127 127
-0.188985 -0.094275 0.612514 76 153 0
0.101592 -0.640765 0.448665 76 153 0
0.154047 0.053259 0.154404 0 127 127
0.050774 -0.687822 0.454320 76 153 0
-0.190959 -0.287931 -0.303270 153 0 76
-0.346040 -0.139971 -0.114742 153 0 76
0.100228 0.277117 -0.425818 76 0 153
0.228594 -0.587846 0.463448 76 153 0
-0.136457 -0.226079 0.693357 76 153 0
0.024203 0.586360 0.379580 0 255 0
0.178206 -0.223783 0.593241 76 153 0
-0.251176 -0.137710 0.509049 76 153 0
0.244694 -0.196845 0.669119 76 153 0
-0.123119 0.449777 -0.045739 153 0 76
-0.296058 -0.271636 0.681584 76 153 0
0.298620 -0.434553 0.599971 76 153 0
0.227197 -0.132678 -0.707465 76 0 153
-0.002019 -0.488814 0.272150 76 153 0
-0.105031 0.295521 -0.159541 153 0 76
-0.012915 -0.035345 0.487171 76 153 0
-0.176481 -0.276983 0.060671 153 0 76
0.069686 -0.635079 0.402045 76 153 0
0.274787 -0.273001 0.628391 76 153 0
-0.253586 -0.513785 0.557130 76 153 0
0.062542 -0.200681 -0.857343 76 0 153
-0.288384 0.019072 -0.626848 76 0 153
-0.122509 -0.178300 -0.442932 153 0 76
0.273149 0.063936 -0.366599 76 0 153
0.184435 -0.167304 0.732741 76 153 0
0.071284 0.547889 0.543076 0 255 0
-0.065946 0.066621 0.241293 0 127 127
-0.055493 0.293480 -0.581878 76 0 153
-0.171966 -0.172904 0.741444 76 153 0
0.093861 -0.241181 -0.781868 76 0 153
-0.026759 0.029790 -0.857343 76 0 153
0.228859 -0.120853 -0.505529 76 0 153
0.015532 0.297013 -0.583821 76 0 153
0.020539 0.296577 -0.835795 76 0 153
0.274420 0.000592 -0.624215 76 0 153
0.086263 0.245981 -0.199750 153 0 76
-0.033080 0.581402 0.040529 0 255 0
0.189747 -0.283038 0.078443 0 127 127
-0.321238 -0.380343 0.365360 76 153 0
0.228587 -0.310794 0.369419 76 153 0
-0.244282 -0.043327 0.066764 0 127 127
-0.045640 -0.471754 0.228784 0 127 127
-0.217155 0.205440 -0.438570 76 0 153
0.075173 -0.358487 -0.013628 153 0 76
0.112874 -0.215335 0.147554 153 0 76
0.145976 0.433408 -0.034283 0 255 0
-0.236992 -0.529529 0.357040 76 153 0
0.185715 0.198827 -0.857343 76 0 153
0.120700 -0.027179 -0.300795 76 0 153
-0.000344 0.716957 0.141940 0 255 0
-0.059339 0.755875 0.287642 0 255 0
-0.281270 0.182606 -0.211100 153 0 76
0.218702 -0.089523 -0.410154 153 0 76
0.053300 -0.237849 0.151261 153 0 76
-0.199563 -0.169458 -0.533983 76 0 153
-0.023958 0.268060 -0.208721 153 0 76
0.152457 0.251124 -0.324077 76 0 153
0.019741 -0.052116 -0.857343 76 0 153
0.114348 0.156915 -0.031205 153 0 76
-0.007498 0.130344 -0.457161 153 0 76
0.196445 -0.501362 0.535179 76 153 0
-0.185525 -0.572401 0.525437 76 153 0
0.054111 0.618079 0.170425 0 255 0
-0.235086 -0.126567 -0.472414 76 0 153
-0.030457 0.069459 -0.857343 76 0 153
-0.017990 0.465333 0.248500 0 255 0
0.267876 -0.151909 0.454166 76 153 0
0.089946 0.205656 -0.857343 76 0 153
0.236071 -0.106972 -0.398186 153 0 76
0.012358 0.113574 0.166165 0 127 127
-0.266287 -0.238565 0.377291 76 153 0
-0.040386 -0.077677 0.464283 0 127 127
-0.238986 0.176958 -0.554398 76 0 153
-0.036749 0.319841 -0.086531 153 0 76
-0.162414 0.009644 0.094010 0 127 127
0.133307 0.289169 -0.207992 153 0 76
-0.115657 -0.073750 0.648174 76 153 0
0.351488 -0.057624 -0.145823 153 0 76
-0.232146 -0.302885 -0.093441 153 0 76
-0.350633 -0.032364 -0.240306 153 0 76
0.263684 -0.060407 -0.705976 76 0 153
0.026604 0.135533 0.084767 153 0 76
-0.058313 0.109035 -0.250408 76 0 153
-0.206815 -0.326002 -0.156053 153 0 76
0.082690 0.214529 -0.154198 153 0 76
-0.160111 -0.315756 0.335554 0 127 127
-0.071182 -0.625113 0.389525 76 153 0
0.022859 0.004649 0.512542 76 153 0
0.301048 -0.203072 -0.210694 153 0 76
-0.110391 0.213609 0.103156 153 0 76
-0.176638 -0.186098 -0.542549 76 0 153
-0.093227 0.154771 -0.026627 153 0 76
0.032269 0.567657 0.069871 0 255 0
0.062788 0.290994 -0.308349 76 0 153
-0.110150 0.795181 0.148676 0 255 0
-0.129692 0.739613 0.150998 0 255 0
-0.122950 0.459048 0.218064 0 255 0
-0.188777 0.222482 -0.311468 153 0 76
0.003389 0.045844 0.293911 0 127 127
0.093358 0.313596 -0.119641 153 0 76
0.091113 0.707880 0.181147 0 255 0
0.119298 -0.096790 0.627355 76 153 0
-0.220983 -0.270883 0.567567 76 153 0
-0.203738 0.026447 -0.429378 153 0 76
-0.170550 -0.000456 -0.290910 76 0 153
0.205746 -0.566912 0.393940 76 153 0
-0.032740 -0.180392 -0.857343 76 0 153
-0.034171 -0.612590 0.501679 76 153 0
0.031774 -0.343446 -0.308337 153 0 76
0.095616 -0.480443 0.301255 76 153 0
0.049133 0.508863 0.623319 0 255 0
-0.006436 -0.347070 0.318622 0 127 127
0.072169 -0.260426 0.365470 0 127 127
0.277293 -0.244120 -0.173047 153 0 76
-0.327481 0.103808 -0.061711 153 0 76
-0.035089 0.248032 0.138494 153 0 76
-0.278349 0.003569 -0.363893 76 0 153
-0.114328 0.580941 -0.023924 0 255 0
0.272388 -0.011501 -0.548297 76 0 153
0.156435 -0.245101 -0.372789 153 0 76
0.104023 -0.007363 0.522148 76 153 0
-0.352563 -0.078349 -0.202651 153 0 76
0.217634 -0.111973 0.575098 76 153 0
-0.077084 0.364390 0.185737 0 255 0
-0.055722 -0.247145 -0.677915 76 0 153
0.230816 0.171490 0.044000 153 0 76
-0.188778 0.052631 0.160460 0 127 127
0.241768 0.157095 -0.602654 76 0 153
-0.196749 -0.167008 -0.457275 76 0 153
-0.285413 -0.006225 -0.719637 76 0 153
-0.041367 0.202585 -0.404986 153 0 76
-0.125394 -0.201181 -0.019983 0 127 127
-0.033239 -0.042754 0.065678 0 127 127
0.267631 -0.454359 0.322002 76 153 0
-0.132153 0.199901 -0.122969 153 0 76
0.028090 0.706686 0.197502 0 255 0
0.097600 0.234746 -0.350105 153 0 76
-0.263662 0.212832 -0.094709 153 0 76
0.297814 -0.421214 0.402702 76 153 0
0.029646 0.453345 -0.119816 153 0 76
-0.280256 -0.048916 -0.839686 76 0 153
0.093555 0.745718 0.207490 0 255 0
0.180145 -0.185873 -0.703079 76 0 153
-0.214071 0.256440 -0.162830 153 0 76
-0.168122 -0.431475 0.302824 76 153 0
-0.026717 0.091617 0.138332 0 127 127
-0.060543 -0.309022 0.082267 153 0 76
-0.053885 0.616584 0.633004 0 255 0
0.246089 0.145210 -0.750432 76 0 153
-0.271462 -0.393091 0.293738 76 153 0
0.301294 -0.305666 0.421007 76 153 0
-0.209013 0.213867 -0.749488 76 0 153
-0.049850 -0.078453 0.691616 76 153 0
0.228963 0.102846 0.100980 153 0 76
-0.145313 -0.535611 0.277478 76 153 0
0.221586 -0.321511 0.269231 0 127 127
0.026221 0.705001 0.395295 0 255 0
-0.101989 -0.023669 0.493484 76 153 0
0.218036 -0.132587 -0.479697 76 0 153
0.216330 -0.355855 0.306072 0 127 127
-0.243495 0.057361 0.119918 153 0 76
0.223137 -0.087394 0.459028 76 153 0
-0.042582 -0.124008 0.734877 76 153 0
-0.212834 -0.320241 -0.108860 153 0 76
-0.004631 0.672032 0.218745 0 255 0
-0.200851 0.086825 -0.412586 153 0 76
0.112585 -0.043831 0.065096 0 127 127
0.273436 -0.165576 0.426694 76 153 0
0.033404 -0.312204 -0.066561 0 127 127
0.028089 -0.543471 0.375198 76 153 0
-0.028727 0.516277 0.484900 0 255 0
-0.294599 -0.196694 0.470425 76 153 0
-0.325100 -0.285189 0.512325 76 153 0
0.131224 0.515302 0.181638 0 255 0
-0.177108 0.085334 -0.857343 76 0 153
-0.043342 0.661409 0.531128 0 255 0
0.127242 -0.109802 0.478234 76 153 0
-0.138656 0.307055 0.093193 153 0 76
-0.027816 0.195995 0.139550 153 0 76
-0.266386 0.126198 -0.512186 76 0 153
-0.032843 -0.280985 0.122078 153 0 76
-0.313897 -0.384485 0.466039 76 153 0
-0.302936 -0.249931 0.621346 76 153 0
0.223016 -0.143319 -0.798598 76 0 153
0.273634 -0.525508 0.469824 76 153 0
-0.190514 0.250441 -0.016979 153 0 76
-0.131917 -0.145065 0.010359 0 127 127
0.062671 0.614970 0.127286 0 255 0
0.088415 0.281803 -0.475495 76 0 153
0.036099 -0.668435 0.473511 76 153 0
0.264534 -0.165197 0.058048 153 0 76
0.298684 -0.388503 0.417590 76 153 0
0.020657 -0.119089 0.579054 76 153 0
-0.273878 -0.057477 0.099400 153 0 76
0.103063 0.398081 0.171977 0 255 0
-0.032259 -0.510992 0.312831 76 153 0
0.104776 -0.323342 0.331452 0 127 127
-0.019506 0.863684 0.095457 0 255 0
0.191005 -0.282207 -0.297530 153 0 76
-0.065783 0.292057 -0.227124 76 0 153
-0.331973 -0.336059 0.522664 76 153 0
0.161156 -0.524283 0.236312 76 153 0
0.015954 0.692923 0.240973 0 255 0
-0.176667 -0.138423 0.651247 76 153 0
0.271716 0.073079 -0.414437 76 0 153
0.123670 -0.050762 0.197799 153 0 76
-0.242318 0.209462 -0.014607 153 0 76
-0.075310 -0.108327 0.691726 76 153 0
0.099851 -0.187223 0.405051 0 127 127
-0.276614 -0.045579 -0.406734 76 0 153
-0.169930 0.293087 -0.012609 153 0 76
-0.180837 -0.279947 0.017391 153 0 76
-0.188796 -0.030374 0.175661 153 0 76
0.193254 -0.069398 0.290184 0 127 127
0.178801 -0.545696 0.539876 76 153 0
0.013089 0.215169 -0.397045 153 0 76
-0.287237 0.012940 -0.538725 76 0 153
-0.120152 -0.621154 0.415643 76 153 0
-0.078166 0.418552 -0.120515 153 0 76
-0.081642 -0.233927 -0.545239 76 0 153
0.154271 -0.366367 0.151458 0 127 127
0.180708 -0.136523 0.670549 76 153 0
-0.207426 0.024385 0.108827 0 127 127
-0.034273 -0.038265 -0.304896 76 0 153
0.013595 0.320357 -0.078580 153 0 76
0.143791 -0.125138 0.711539 76 153 0
-0.249117 -0.094136 0.083522 0 127 127
0.292609 -0.280945 0.527216 76 153 0
-0.149015 0.182698 0.017071 153 0 76
-0.282190 -0.396402 0.324547 76 153 0
-0.060846 0.239822 -0.362310 153 0 76
0.081533 0.284654 -0.795451 76 0 153
0.197578 -0.060660 -0.313180 76 0 153
-0.355161 0.046974 -0.120441 153 0 76
0.140240 -0.352978 -0.090765 153 0 76
0.050612 0.240073 -0.857343 76 0 153
0.130643 0.013681 0.265361 0 127 127
0.198013 -0.160666 0.130375 153 0 76
0.145763 -0.011583 0.188618 153 0 76
0.091383 0.400143 -0.112432 153 0 76
0.219160 -0.387581 0.427089 76 153 0
-0.044079 -0.254932 -0.765478 76 0 153
-0.315767 -0.300647 0.421231 76 153 0
-0.073135 0.611743 0.120371 0 255 0
-0.301105 -0.024442 -0.339043 153 0 76
0.149881 0.004525 -0.289067 76 0 153
-0.231953 -0.345544 0.648098 76 153 0
0.096144 -0.132276 0.434761 0 127 127
-0.137986 -0.295248 -0.338354 153 0 76
-0.047680 0.124774 0.037410 153 0 76
-0.231814 -0.135505 -0.560511 76 0 153
0.228065 -0.250273 0.025741 153 0 76
-0.029335 -0.184242 0.187831 153 0 76
0.183489 -0.467638 0.253431 76 153 0
0.315484 -0.440537 0.517859 76 153 0
-0.191555 0.006670 0.092401 0 127 127
0.280327 -0.215606 0.596036 76 153 0
-0.124202 -0.008483 0.331518 0 127 127
-0.077377 0.269044 0.049532 153 0 76
-0.045826 0.966867 -0.219153 0 255 0
-0.113511 0.346322 -0.128119 153 0 76
0.175442 0.280611 -0.143442 153 0 76
-0.252687 -0.174536 0.561717 76 153 0
0.015759 -0.235085 -0.455081 76 0 153
0.152457 -0.063318 0.185190 153 0 76
-0.207869 -0.070386 0.495991 76 153 0
0.122387 0.538626 -0.058442 0 255 0
-0.167911 -0.205157 -0.739741 76 0 153
0.134116 0.392988 -0.066654 153 0 76
0.195199 -0.165188 0.657838 76 153 0
0.013882 -0.322844 0.331721 0 127 127
-0.334497 -0.391192 0.545175 76 153 0
0.237507 -0.278817 0.327476 0 127 127
-0.309398 -0.287863 0.453188 76 153 0
0.127551 0.587863 -0.029933 0 255 0
0.160163 0.265709 -0.250480 76 0 153
0.230150 -0.126976 -0.663132 76 0 153
-0.077247 -0.461889 0.223945 0 127 127
-0.078712 0.189984 -0.408200 153 0 76
-0.168796 -0.036409 -0.857343 76 0 153
-0.234074 -0.162008 0.345337 0 127 127
-0.056132 0.509004 0.519976 0 255 0
0.197327 0.214828 -0.718491 76 0 153
-0.144446 -0.542296 0.460997 76 153 0
-0.066603 0.308555 -0.038577 153 0 76
-0.071848 0.816246 -0.049587 0 255 0
0.025994 0.369514 -0.159498 153 0 76
0.187535 0.222923 -0.754446 76 0 153
0.178080 -0.610619 0.472516 76 153 0
0.247548 -0.424278 0.285729 76 153 0
0.228305 -0.463983 0.296804 76 153 0
0.085890 -0.095444 0.037189 0 127 127
0.017757 0.298579 -0.002554 153 0 76
0.071008 0.416544 0.218132 0 255 0
0.092069 -0.593707 0.309279 76 153 0
0.093306 -0.423598 0.176941 0 127 127
0.206747 -0.507519 0.333659 76 153 0
0.100586 0.300162 -0.045740 153 0 76
0.301978 -0.466458 0.514977 76 153 0
0.012425 -0.278387 -0.061728 0 127 127
-0.147563 0.344094 0.096248 153 0 76
0.274112 -0.185431 0.461866 76 153 0
-0.113923 0.155383 -0.422440 153 0 76
0.206488 0.202795 -0.772904 76 0 153
-0.105450 -0.367583 -0.212805 153 0 76
-0.220653 -0.203752 -0.363192 153 0 76
-0.227220 -0.081023 0.230347 0 127 127
-0.254554 0.158279 -0.245236 76 0 153
0.228244 -0.164726 0.013058 0 127 127
-0.039689 0.544830 0.118602 0 255 0
0.272539 0.014139 -0.354944 76 0 153
-0.065141 0.328279 -0.169253 153 0 76
0.061139 0.566824 0.096404 0 255 0
0.304287 0.082106 -0.001436 153 0 76
0.234405 -0.469626 0.264160 76 153 0
-0.296189 0.173999 -0.160563 153 0 76
-0.281435 -0.452044 0.398499 76 153 0
0.230208 -0.041947 0.085628 0 127 127
0.294934 -0.237626 0.411179 76 153 0
-0.115228 0.125263 -0.244405 76 0 153
0.115664 0.408841 0.012876 0 255 0
-0.031425 0.168786 0.160064 153 0 76
-0.315118 -0.295147 0.376902 76 153 0
0.123373 -0.596533 0.336204 76 153 0
0.232039 -0.076960 0.129329 0 127 127
0.159903 -0.489533 0.415988 76 153 0
0.147194 -0.552969 0.271358 76 153 0
0.189480 -0.097908 -0.857343 76 0 153
-0.087403 0.654971 0.170113 0 255 0
-0.249215 0.185350 0.009712 153 0 76
0.105403 0.169733 -0.227955 76 0 153
0.040169 0.126190 0.184248 153 0 76
-0.308256 -0.349916 0.421916 76 153 0
-0.256916 -0.549103 0.437721 76 153 0
-0.007716 0.128404 -0.243243 76 0 153
0.284437 -0.359500 0.323186 76 153 0
-0.322850 0.037331 -0.285815 153 0 76
0.172417 -0.388347 0.296304 0 127 127
0.166416 -0.230300 0.381760 0 127 127
-0.159439 -0.129957 0.436015 0 127 127
-0.075789 0.893197 -0.024474 0 255 0
-0.205720 -0.156385 0.696559 76 153 0
0.261207 0.115386 -0.426257 76 0 153
0.050097 0.796046 0.041164 0 255 0
-0.154153 -0.348008 -0.208568 153 0 76
-0.064382 -0.677994 0.437011 76 153 0
-0.282691 -0.018083 -0.477138 76 0 153
-0.178001 0.241376 -0.343002 76 0 153
0.148910 0.104790 -0.429086 153 0 76
-0.073122 0.539202 0.130617 0 255 0
-0.199340 -0.261045 0.693786 76 153 0
-0.030679 0.296622 -0.485891 76 0 153
0.113904 0.034981 0.195653 153 0 76
0.239387 -0.222235 0.252854 0 127 127
-0.169343 0.342832 0.004058 153 0 76
0.206363 -0.154833 0.633612 76 153 0
0.252422 -0.244650 -0.258882 153 0 76
0.269038 0.094276 -0.304249 76 0 153
0.295962 -0.212980 -0.067051 153 0 76
-0.023450 0.480590 0.618883 0 255 0
0.273074 -0.014126 -0.751025 76 0 153
-0.287012 0.038075 -0.598878 76 0 153
-0.011327 0.188398 -0.221051 76 0 153
0.301017 -0.035862 -0.324892 153 0 76
0.103196 0.276427 -0.251351 76 0 153
0.192200 -0.174520 -0.666702 76 0 153
-0.196083 -0.310581 0.338351 0 127 127
-0.043295 0.823105 0.116610 0 255 0
-0.305490 -0.393428 0.441521 76 153 0
0.059490 0.653643 0.128385 0 255 0
-0.232381 -0.113876 0.578217 76 153 0
0.099384 0.142412 0.160077 153 0 76
0.007035 0.502937 0.506921 0 255 0
0.133271 0.264506 -0.345536 76 0 153
-0.185255 -0.624204 0.497427 76 153 0
-0.016995 -0.555968 0.395373 76 153 0
-0.305029 -0.231007 0.563626 76 153 0
-0.315104 0.141287 -0.083986 153 0 76
-0.021303 0.517871 0.176153 0 255 0
0.014145 0.785304 0.216170 0 255 0
-0.240844 -0.257233 0.398855 76 153 0
0.255757 -0.082832 -0.787575 76 0 153
0.267904 -0.120127 0.076628 153 0 76
0.317273 -0.371655 0.457022 76 153 0
-0.128046 -0.265054 -0.380023 153 0 76
-0.224719 -0.163090 0.394818 0 127 127
0.309817 -0.264750 0.480349 76 153 0
0.042146 -0.107813 0.745409 76 153 0
0.081475 -0.081738 0.477980 76 153 0
0.123055 -0.628754 0.494967 76 153 0
0.135987 -0.093875 -0.459626 153 0 76
0.042711 0.714752 0.126722 0 255 0
-0.025356 -0.245733 -0.603384 76 0 153
0.164949 0.480047 0.137963 0 255 0
0.021027 -0.271446 0.129450 153 0 76
0.160284 0.270753 -0.032840 153 0 76
0.228698 -0.339626 0.423728 76 153 0
-0.022604 -0.043809 0.593003 76 153 0
-0.298856 -0.184214 0.515214 76 153 0
-0.065648 -0.164599 0.191424 153 0 76
-0.013534 0.018324 -0.491122 153 0 76
-0.009227 0.328618 0.186754 153 0 76
-0.099036 -0.127501 -0.857343 76 0 153
0.185429 -0.206949 0.537609 76 153 0
0.223823 0.183848 -0.493635 76 0 153
0.016082 0.296761 -0.353097 76 0 153
0.005026 -0.187509 0.404896 0 127 127
0.029432 0.295112 -0.182895 76 0 153
-0.226165 -0.211357 0.437180 76 153 0
-0.030391 -0.072781 0.491542 76 153 0
0.165255 -0.100735 0.421128 0 127 127
-0.303254 -0.426317 0.459707 76 153 0
-0.005425 0.797263 -0.091550 0 255 0
-0.021776 0.651827 0.578311 0 255 0
-0.111777 0.055223 0.195196 0 127 127
0.111328 0.274874 0.100392 153 0 76
-0.002849 0.679291 0.501072 0 255 0
-0.212631 0.000737 -0.857343 76 0 153
-0.029540 -0.024646 0.548841 76 153 0
0.216558 0.250074 -0.137285 153 0 76
0.005863 0.618248 -0.051665 0 255 0
0.013459 0.682591 0.092451 0 255 0
-0.046952 0.817249 0.248462 0 255 0
-0.165934 0.397498 0.080966 0 255 0
0.268572 0.094003 -0.477756 76 0 153
0.024012 -0.432523 0.153365 0 127 127
-0.059549 -0.143456 -0.857343 76 0 153
0.002145 -0.102461 0.711902 76 153 0
0.114948 -0.109480 0.192597 153 0 76
0.092350 0.031744 0.275030 0 127 127
0.235703 -0.178142 0.272869 0 127 127
0.097745 -0.346952 0.318686 0 127 127
-0.068109 0.507749 0.197761 0 255 0
0.081593 -0.334717 0.002357 0 127 127
0.082635 -0.025312 0.568160 76 153 0
-0.105391 0.280125 -0.203122 76 0 153
0.061924 -0.621399 0.375741 76 153 0
0.156328 0.314426 0.011955 153 0 76
0.181129 0.233171 -0.285425 76 0 153
0.052926 -0.091352 -0.486764 153 0 76
-0.098559 -0.247553 -0.839080 76 0 153
0.299412 -0.298937 0.554236 76 153 0
0.234229 -0.214372 0.363421 0 127 127
-0.123745 0.715601 0.142957 0 255 0
0.127337 -0.200661 -0.377189 76 0 153
0.080842 -0.118037 0.024973 0 127 127
0.035822 -0.639931 0.365619 76 153 0
-0.149902 -0.322840 0.011632 153 0 76
0.020134 -0.592559 0.465466 76 153 0
0.302081 -0.146331 -0.274135 153 0 76
-0.031979 0.233480 -0.194652 153 0 76
-0.279562 0.089811 -0.776375 76 0 153
0.242956 0.052201 -0.381323 153 0 76
0.262875 -0.285978 0.680305 76 153 0
-0.230717 -0.486740 0.321231 76 153 0
-0.111975 -0.128901 0.756168 76 153 0
-0.286248 -0.218140 -0.017225 153 0 76
-0.019145 0.842777 0.130810 0 255 0
0.322428 -0.341584 0.548688 76 153 0
-0.267947 -0.070653 -0.515879 76 0 153
-0.125031 -0.370945 0.305713 0 127 127
0.052331 0.448730 0.255062 0 255 0
0.146341 0.075384 -0.857343 76 0 153
-0.071756 -0.014910 0.080733 0 127 127
-0.093365 0.883983 -0.118294 0 255 0
-0.255164 -0.494410 0.326779 76 153 0
-0.291857 0.097845 -0.309111 153 0 76
0.175308 -0.283634 0.039980 153 0 76
-0.131754 -0.142538 0.544976 76 153 0
-0.191876 -0.151179 0.424540 0 127 127
0.144065 -0.061442 -0.857343 76 0 153
-0.019004 0.649834 0.257160 0 255 0
-0.291403 -0.246211 0.670361 76 153 0
-0.123440 0.273114 -0.402029 76 0 153
0.234803 0.007899 -0.287819 76 0 153
-0.246833 -0.224100 0.360354 0 127 127
0.166582 -0.530033 0.505832 76 153 0
-0.050129 0.971682 -0.103884 0 255 0
-0.240323 -0.125530 -0.583406 76 0 153
-0.066187 0.567499 0.144599 0 255 0
0.219519 -0.228906 0.431545 76 153 0
0.148400 0.202838 -0.357719 153 0 76
-0.269367 -0.211711 0.665926 76 153 0
-0.078107 0.093422 0.183192 0 127 127
-0.213372 -0.038361 0.156213 153 0 76
0.088219 0.606708 -0.035500 0 255 0
0.069995 0.289477 -0.189549 153 0 76
0.154919 -0.341691 -0.217948 153 0 76
0.015723 -0.173647 0.681094 76 153 0
-0.063289 -0.118810 0.208795 153 0 76
0.028016 0.877810 -0.230900 0 255 0
-0.203322 -0.110167 0.029228 0 127 127
0.012279 -0.318750 -0.347793 153 0 76
-0.245638 0.113510 -0.248753 76 0 153
-0.037373 -0.223630 0.165630 153 0 76
0.208536 -0.016975 0.079617 0 127 127
-0.239344 0.174623 -0.708991 76 0 153
0.224644 -0.012745 -0.857343 76 0 153
0.200653 -0.425807 0.276049 76 153 0
-0.008902 -0.604107 0.326083 76 153 0
-0.037956 0.099270 0.188657 0 127 127
0.083684 0.153504 -0.023922 153 0 76
0.207719 -0.195501 0.099654 153 0 76
-0.090306 -0.071394 0.652970 76 153 0
-0.062421 0.644728 0.221344 0 255 0
-0.112153 0.309699 -0.114074 153 0 76
-0.183091 -0.184442 -0.592544 76 0 153
-0.143421 -0.222368 -0.738611 76 0 153
0.180847 -0.332746 -0.088321 153 0 76
-0.078033 -0.230916 -0.485010 76 0 153
0.228702 -0.007069 0.134027 153 0 76
-0.275039 0.112012 -0.249306 76 0 153
-0.152208 -0.103917 0.622198 76 153 0
0.080228 -0.228468 -0.519331 76 0 153
0.021862 0.401182 0.029227 0 255 0
0.106141 0.153438 0.048171 153 0 76
0.202094 -0.527874 0.306322 76 153 0
0.000347 0.390792 0.051408 0 255 0
-0.301262 -0.492529 0.565899 76 153 0
-0.178027 -0.240195 0.097798 153 0 76
0.287363 -0.426762 0.338253 76 153 0
0.334024 0.050173 -0.223047 153 0 76
-0.314016 0.133844 -0.217391 153 0 76
0.167076 -0.054639 0.506395 76 153 0
0.042626 -0.106042 0.709368 76 153 0
0.275140 0.047719 -0.458674 76 0 153
-0.035830 0.125471 0.185775 153 0 76
-0.004024 0.141746 0.092217 153 0 76
0.098112 -0.185206 -0.444869 153 0 76
-0.157604 -0.065877 -0.857343 76 0 153
-0.072709 0.487623 -0.116334 0 255 0
-0.211364 -0.311687 0.159736 0 127 127
0.164481 -0.178476 -0.394916 76 0 153
-0.082771 0.608406 0.447128 0 255 0
0.278501 -0.460882 0.380357 76 153 0
0.260241 0.112370 -0.685997 76 0 153
-0.279134 -0.329388 0.656833 76 153 0
0.005381 -0.026858 0.427819 0 127 127
0.189607 0.046828 0.153516 153 0 76
0.020189 0.048705 -0.272725 76 0 153
0.138801 -0.207695 0.393982 0 127 127
0.033486 0.786721 -0.012964 0 255 0
-0.153830 -0.586341 0.517899 76 153 0
0.080910 -0.292299 -0.364969 153 0 76
-0.012683 -0.165266 0.196599 153 0 76
-0.311472 -0.422420 0.406206 76 153 0
0.163650 0.024058 0.192918 0 127 127
0.307265 -0.274643 0.582780 76 153 0
0.127937 0.362211 -0.089450 153 0 76
0.089362 -0.294878 0.085725 153 0 76
-0.294772 -0.186750 -0.278301 153 0 76
0.265381 -0.046316 -0.441316 76 0 153
-0.083359 -0.047893 0.480386 76 153 0
0.146226 -0.156326 0.004270 0 127 127
-0.320319 -0.032497 0.041587 153 0 76
0.245522 0.149302 -0.551731 76 0 153
-0.050875 -0.581432 0.257283 76 153 0
0.065244 0.310949 -0.213094 153 0 76
-0.301341 -0.435258 0.489197 76 153 0
0.067896 -0.134320 0.743797 76 153 0
0.141200 0.264638 -0.109509 153 0 76
-0.022910 0.825407 -0.170057 0 255 0
0.329035 -0.160052 -0.138726 153 0 76
-0.012623 0.703041 0.434359 0 255 0
0.238123 0.108369 -0.358938 153 0 76
0.150883 0.300287 -0.068968 153 0 76
-0.055958 -0.196715 -0.857343 76 0 153
0.209034 -0.230877 0.069975 153 0 76
0.112457 -0.452895 0.261403 76 153 0
-0.219395 -0.487164 0.549528 76 153 0
0.155901 0.247408 0.023460 153 0 76
-0.159578 -0.296187 0.012017 0 127 127
0.012424 -0.063409 0.624226 76 153 0
-0.070050 0.028449 -0.857343 76 0 153
0.326128 0.078679 -0.213518 153 0 76
0.211188 0.214330 0.005405 153 0 76
0.075725 0.004574 -0.289049 76 0 153
0.180807 0.229229 -0.544098 76 0 153
0.230070 0.227083 -0.214010 153 0 76
0.212736 -0.146404 -0.620100 76 0 153
0.237968 -0.228019 0.039597 153 0 76
-0.090601 -0.182990 -0.358431 76 0 153
-0.224082 -0.544065 0.540758 76 153 0
-0.202474 -0.189371 0.403889 0 127 127
-0.059841 0.162851 0.090796 153 0 76
-0.068353 -0.159824 0.419865 0 127 127
0.101332 0.569377 0.066199 0 255 0
0.081789 0.520975 0.169527 0 255 0
-0.123299 0.247081 -0.327874 153 0 76
-0.311589 -0.259499 0.442308 76 153 0
-0.022822 -0.600115 0.298416 76 153 0
-0.319869 -0.460311 0.506756 76 153 0
-0.151183 -0.087315 0.437218 0 127 127
-0.245456 -0.258615 0.236831 0 127 127
-0.248806 0.217664 -0.040070 153 0 76
0.067907 -0.055510 -0.487564 153 0 76
-0.323705 -0.453669 0.549842 76 153 0
0.036234 -0.389659 0.077472 0 127 127
-0.243353 -0.091354 0.127854 0 127 127
0.185333 -0.114287 -0.333017 76 0 153
0.223285 -0.302169 -0.100396 153 0 76
-0.277634 0.199151 -0.115826 153 0 76
0.295415 -0.223501 0.544095 76 153 0
-0.162992 0.255715 -0.084875 153 0 76
-0.025163 -0.556744 0.245338 76 153 0
0.261266 0.188937 -0.231173 153 0 76
-0.206901 -0.047085 -0.857343 76 0 153
0.250101 -0.512827 0.438448 76 153 0
-0.044206 0.162790 -0.435234 153 0 76
-0.263247 -0.079698 -0.381302 76 0 153
0.077581 -0.373984 -0.072278 153 0 76
0.291260 -0.468332 0.565272 76 153 0
0.201906 -0.394318 0.293075 76 153 0
0.267833 0.090718 -0.847498 76 0 153
-0.250466 0.163842 0.039176 153 0 76
-0.124178 0.599201 -0.003846 0 255 0
-0.117047 -0.348860 0.049564 0 127 127
0.134257 -0.092522 0.605839 76 153 0
-0.319154 -0.055472 -0.308958 153 0 76
0.274910 -0.041203 0.086139 153 0 76
0.103296 -0.241100 -0.840500 76 0 153
-0.132062 -0.564391 0.487783 76 153 0
-0.202114 -0.512820 0.538321 76 153 0
0.259541 -0.539109 0.525095 76 153 0
0.185307 -0.158968 0.706210 76 153 0
-0.159781 0.489729 -0.013469 0 255 0
-0.204369 0.220833 0.019680 153 0 76
0.038356 0.234296 -0.196396 153 0 76
-0.152762 0.071933 0.177271 153 0 76
0.159748 -0.596884 0.425523 76 153 0
-0.192093 -0.132729 -0.424849 153 0 76
-0.187204 -0.183673 -0.629366 76 0 153
-0.010200 0.299092 -0.418479 76 0 153
-0.308445 -0.317224 0.585864 76 153 0
-0.263832 -0.369533 0.635127 76 153 0
0.030454 0.599187 0.061846 0 255 0
-0.117982 0.001699 -0.475616 153 0 76
-0.181331 0.238468 -0.502384 76 0 153
0.102280 0.359113 0.154639 0 255 0
-0.003044 -0.234361 -0.413616 76 0 153
0.261175 -0.058931 -0.524239 76 0 153
-0.169219 0.256600 -0.037676 153 0 76
-0.122209 -0.615184 0.502304 76 153 0
-0.081752 -0.370392 -0.230987 153 0 76
-0.181200 -0.277068 -0.328666 153 0 76
-0.013060 0.724885 0.115732 0 255 0
0.066599 0.320625 -0.138240 153 0 76
0.056420 -0.166136 -0.462362 153 0 76
0.203145 -0.291289 0.130413 0 127 127
0.000782 0.007908 0.093071 0 127 127
0.061486 0.280638 0.140180 153 0 76
-0.284721 -0.012849 -0.766243 76 0 153
0.077523 0.004878 0.337630 0 127 127
-0.294782 -0.420967 0.332063 76 153 0
0.174127 -0.377209 0.209809 0 127 127
-0.081176 0.401116 0.029369 0 255 0
0.337703 -0.123627 -0.087696 153 0 76
0.231055 -0.546510 0.392496 76 153 0
0.169304 -0.088521 -0.323486 76 0 153
0.140831 0.579760 0.015285 0 255 0
-0.279606 0.094522 -0.531387 76 0 153
-0.231050 -0.434747 0.523991 76 153 0
-0.187063 0.110399 -0.857343 76 0 153
-0.283675 0.071380 -0.265383 76 0 153
-0.211207 -0.170356 -0.735962 76 0 153
-0.117363 -0.104545 0.449755 0 127 127
0.077819 -0.390053 0.101414 0 127 127
-0.297206 -0.210134 0.392663 76 153 0
0.276938 0.038432 -0.303973 76 0 153
0.210425 0.199677 -0.602159 76 0 153
-0.062847 -0.486508 0.282663 76 153 0
-0.067348 -0.233585 0.379983 0 127 127
0.203902 -0.152406 -0.524732 76 0 153
0.154460 -0.054964 0.476563 76 153 0
0.239122 -0.109629 0.040364 0 127 127
-0.195970 -0.245042 -0.350245 153 0 76
-0.292887 -0.219953 0.612636 76 153 0
0.230003 -0.311203 0.435317 76 153 0
-0.094222 -0.394814 0.292807 0 127 127
0.282652 -0.424607 0.429534 76 153 0
0.094895 0.111069 0.179610 153 0 76
-0.009498 -0.674316 0.416024 76 153 0
-0.315025 -0.345214 0.476852 76 153 0
0.075775 0.287126 -0.230124 76 0 153
-0.014641 0.485336 0.533420 0 255 0
0.180078 -0.636730 0.486383 76 153 0
0.155308 0.248390 -0.439029 76 0 153
-0.011769 -0.458549 0.258345 0 127 127
-0.295182 -0.390364 0.359857 76 153 0
-0.069944 0.871773 0.020364 0 255 0
0.161954 -0.188398 -0.519755 76 0 153
0.300318 -0.297347 0.447595 76 153 0
-0.057614 -0.333854 0.325768 0 127 127
0.117473 -0.409323 0.284962 0 127 127
-0.342090 -0.018392 -0.014784 153 0 76
0.110300 -0.530958 0.251659 76 153 0
-0.046644 -0.384437 -0.109454 153 0 76
0.086902 -0.041521 0.066345 0 127 127
0.072382 0.529952 0.569398 0 255 0
0.308923 -0.191296 -0.189479 153 0 76
0.233494 -0.256928 0.222911 0 127 127
0.277193 0.028451 -0.583731 76 0 153
0.272924 0.057562 -0.696722 76 0 153
0.062275 0.730273 0.178951 0 255 0
-0.279605 -0.033971 -0.328688 76 0 153
0.060082 0.377622 -0.143304 153 0 76
-0.134949 -0.570403 0.284193 76 153 0
0.072473 -0.100696 0.707499 76 153 0
0.059263 -0.111730 0.546369 76 153 0
-0.123328 -0.026079 0.551420 76 153 0
-0.162614 -0.191716 0.402621 0 127 127
-0.062059 -0.048816 -0.857343 76 0 153
-0.220479 -0.162838 -0.818536 76 0 153
0.037851 -0.022444 0.076660 0 127 127
0.024664 0.131958 0.022073 153 0 76
0.000571 0.096283 0.199172 0 127 127
-0.038533 0.349860 0.167560 153 0 76
-0.065983 0.771243 0.134129 0 255 0
-0.086600 -0.079147 -0.485309 153 0 76
0.237039 -0.258341 0.282140 0 127 127
-0.009814 0.191380 0.114813 153 0 76
-0.183244 0.075996 -0.428500 153 0 76
0.313345 -0.423352 0.477272 76 153 0
-0.206560 -0.166894 -0.579812 76 0 153
0.078602 0.228445 -0.367312 153 0 76
-0.207170 -0.127482 0.143763 153 0 76
0.205170 -0.483637 0.273653 76 153 0
0.041519 0.206370 -0.857343 76 0 153
0.220281 -0.360484 0.387006 76 153 0
0.276063 0.033098 -0.717852 76 0 153
-0.139581 -0.063129 0.472149 76 153 0
0.319463 -0.244304 0.414977 76 153 0
-0.183037 -0.091100 -0.443655 153 0 76
-0.157822 -0.504588 0.417690 76 153 0
0.288077 -0.005952 0.066282 153 0 76
-0.291555 -0.498473 0.454712 76 153 0
0.273511 -0.000962 -0.458911 76 0 153
0.095743 0.229528 0.085515 153 0 76
-0.323381 0.128929 -0.106346 153 0 76
0.031767 0.027284 0.320383 0 127 127
-0.216608 -0.549804 0.408617 76 153 0
0.023575 -0.014649 -0.493373 153 0 76
-0.136389 0.267935 -0.355375 76 0 153
-0.001203 -0.089731 0.676100 76 153 0
0.084347 -0.004823 0.213425 153 0 76
0.071915 0.169681 0.083039 153 0 76
0.060602 -0.070454 0.669019 76 153 0
-0.124315 0.048400 -0.857343 76 0 153
0.264659 0.086179 0.066014 153 0 76
-0.306877 0.130759 -0.027211 153 0 76
-0.339029 -0.163365 -0.133709 153 0 76
-0.042259 0.458660 0.239017 0 255 0
0.081197 -0.604195 0.508246 76 153 0
0.203819 -0.373291 0.327201 76 153 0
0.224704 0.117710 -0.857343 76 0 153
-0.274225 0.067659 -0.349279 76 0 153
0.013961 0.575956 0.052154 0 255 0
0.002451 -0.256947 -0.736670 76 0 153
0.313045 -0.247242 0.505620 76 153 0
0.092165 -0.371502 0.079598 0 127 127
-0.002531 0.630743 0.632219 0 255 0
-0.250678 -0.248141 0.343409 0 127 127
-0.163042 -0.127410 0.469669 76 153 0
-0.052238 -0.141855 0.429581 0 127 127
-0.001414 -0.141634 0.012214 0 127 127
0.173929 -0.179088 0.136484 153 0 76
0.170335 -0.609491 0.404288 76 153 0
0.225150 0.221562 -0.029262 153 0 76
-0.009639 -0.401378 0.088661 0 127 127
0.067268 -0.050289 0.586329 76 153 0
0.100790 0.549185 0.109306 0 255 0
-0.069944 0.912614 -0.039645 0 255 0
0.013405 0.003162 0.548854 76 153 0
0.256425 0.128438 -0.267902 76 0 153
-0.170086 0.559333 0.031193 0 255 0
0.143260 -0.214664 -0.721055 76 0 153
-0.087308 -0.634621 0.410090 76 153 0
0.136313 0.050915 -0.456278 153 0 76
0.050503 -0.568279 0.276135 76 153 0
0.036548 0.143755 -0.003111 153 0 76
0.048836 0.222727 -0.171697 153 0 76
-0.152811 -0.589014 0.382009 76 153 0
0.327356 0.094443 -0.158611 153 0 76
0.176854 0.473328 0.098386 0 255 0
0.114340 -0.250877 0.123867 153 0 76
-0.091619 0.880310 -0.167941 0 255 0
-0.181421 -0.379711 0.203499 0 127 127
0.020211 0.684046 0.276704 0 255 0
0.031575 -0.033554 0.221014 153 0 76
-0.158996 0.227974 -0.109458 153 0 76
0.250958 -0.500182 0.364764 76 153 0
0.155275 0.353906 0.041818 153 0 76
0.172009 -0.187862 -0.629470 76 0 153
-0.069356 -0.224226 -0.374873 76 0 153
0.049482 0.292637 -0.622473 76 0 153
0.321317 -0.344938 0.471552 76 153 0
0.156080 -0.311879 -0.291878 153 0 76
0.108589 0.274012 -0.372979 76 0 153
-0.062287 0.454405 -0.111585 153 0 76
0.215776 0.075431 0.126333 153 0 76
0.319194 -0.407822 0.609996 76 153 0
0.243007 -0.101586 -0.540507 76 0 153
0.182729 -0.038639 -0.305034 76 0 153
-0.128119 -0.533305 0.425842 76 153 0
0.112340 -0.014735 0.343582 0 127 127
-0.080612 0.949053 -0.201058 0 255 0
-0.334241 -0.278738 0.375120 76 153 0
0.219143 0.186818 -0.733339 76 0 153
-0.015130 -0.116693 -0.486422 153 0 76
-0.161903 0.375328 -0.032001 153 0 76
0.065009 0.170954 -0.061174 153 0 76
0.253057 0.127972 -0.770606 76 0 153
0.137714 -0.310027 0.020546 0 127 127
0.059571 -0.363534 0.036475 0 127 127
-0.231790 -0.497406 0.290702 76 153 0
-0.230989 -0.213900 0.406886 76 153 0
0.223867 -0.270721 0.478553 76 153 0
-0.022219 0.901471 -0.245882 0 255 0
0.178958 -0.411190 0.313722 76 153 0
-0.028153 -0.241264 -0.546390 76 0 153
-0.288088 0.027738 -0.692694 76 0 153
-0.165769 0.188560 -0.033061 153 0 76
0.129453 0.526067 0.158658 0 255 0
0.043944 -0.014906 -0.857343 76 0 153
-0.180184 -0.132771 -0.339854 76 0 153
0.276754 0.011710 -0.805326 76 0 153
0.272070 -0.008395 -0.366272 76 0 153
-0.192189 0.439384 0.003682 0 255 0
-0.132275 -0.121360 0.505130 76 153 0
0.179192 -0.060424 0.539899 76 153 0
0.258650 0.011105 0.101705 153 0 76
-0.175550 -0.452582 0.356539 76 153 0
-0.014387 0.843110 0.187361 0 255 0
-0.076577 0.136074 0.175520 153 0 76
0.043199 0.293533 -0.766869 76 0 153
-0.324392 -0.090671 -0.285124 153 0 76
-0.187646 -0.035563 0.069566 0 127 127
-0.288758 0.020657 -0.773156 76 0 153
-0.226811 -0.164998 0.115922 153 0 76
-0.174549 -0.225702 0.712896 76 153 0
0.253634 -0.119692 0.447321 76 153 0
-0.317352 -0.246901 0.531631 76 153 0
0.288202 0.174919 -0.135636 153 0 76
-0.109963 -0.366863 -0.067190 153 0 76
-0.265361 -0.159829 0.499972 76 153 0
0.184303 -0.072442 0.467113 76 153 0
-0.021075 -0.026002 0.425016 0 127 127
-0.067787 -0.291860 0.103390 153 0 76
-0.188826 -0.350087 0.169002 0 127 127
-0.103344 0.671182 0.159369 0 255 0
-0.020415 -0.174688 -0.005658 0 127 127
-0.133078 0.364197 -0.097181 153 0 76
0.097301 -0.142834 -0.461172 153 0 76
-0.000959 0.299275 -0.686853 76 0 153
-0.156815 0.237565 0.023567 153 0 76
0.129066 0.294433 -0.183167 153 0 76
-0.123691 -0.610459 0.386491 76 153 0
0.104774 -0.036156 -0.857343 76 0 153
0.189634 0.076523 -0.857343 76 0 153
0.233635 -0.121602 -0.638658 76 0 153
-0.118566 -0.131009 0.713213 76 153 0
0.016357 -0.331573 0.058522 153 0 76
-0.343087 0.060540 -0.045316 153 0 76
-0.231656 -0.457859 0.570963 76 153 0
-0.045471 0.624716 0.076056 0 255 0
-0.192999 0.256259 -0.239958 153 0 76
-0.298074 -0.417657 0.434512 76 153 0
0.037568 0.294317 -0.815833 76 0 153
-0.076734 0.644449 0.481761 0 255 0
-0.066594 -0.494449 0.238935 76 153 0
-0.129193 -0.147198 0.182023 153 0 76
-0.031823 -0.003742 0.220916 153 0 76
0.235603 -0.078400 0.090006 0 127 127
0.213314 0.238807 -0.050962 153 0 76
-0.283515 -0.413510 0.282904 76 153 0
-0.146585 0.282234 -0.114927 153 0 76
0.045697 0.700465 0.318945 0 255 0
0.018101 -0.246263 -0.614339 76 0 153
-0.140642 -0.360876 0.101107 0 127 127
0.103372 -0.163484 0.604453 76 153 0
0.167626 -0.196906 -0.727775 76 0 153
-0.144370 -0.039598 0.515795 76 153 0
0.014640 -0.157950 0.198907 153 0 76
0.267390 0.103594 -0.273975 76 0 153
0.231813 0.152433 -0.330534 153 0 76
0.179018 -0.057765 0.307677 0 127 127
-0.116036 0.036769 0.254936 0 127 127
-0.147312 -0.260269 0.101442 153 0 76
-0.216281 -0.036349 0.196890 0 127 127
-0.291115 -0.171312 -0.300915 153 0 76
0.218413 0.013820 -0.411671 153 0 76
0.274527 -0.000312 -0.679631 76 0 153
0.042452 -0.176470 0.739516 76 153 0
0.206864 -0.090606 0.292116 0 127 127
0.146845 0.379056 -0.042013 153 0 76
0.209615 0.202031 -0.407626 76 0 153
-0.060430 -0.346883 0.001933 153 0 76
-0.015755 -0.411809 0.283618 0 127 127
0.158041 0.245252 -0.832450 76 0 153
-0.305667 -0.284178 0.546693 76 153 0
-0.048375 0.908537 0.001851 0 255 0
0.333141 0.053056 -0.044989 153 0 76
0.233452 -0.150746 0.258158 0 127 127
0.058129 -0.035398 0.429008 0 127 127
-0.218863 0.128905 -0.374636 153 0 76
0.092847 -0.385943 0.297603 0 127 127
0.216877 -0.590946 0.515409 76 153 0
-0.163338 0.227959 -0.206417 76 0 153
-0.142529 -0.347270 -0.036458 153 0 76
-0.069297 0.527595 0.638119 0 255 0
0.004265 0.298546 -0.640124 76 0 153
-0.036672 -0.200193 0.398038 0 127 127
0.087234 0.770124 0.204512 0 255 0
-0.078534 0.236895 0.090902 153 0 76
-0.099652 -0.376817 -0.107418 153 0 76
0.023839 -0.054995 0.603618 76 153 0
-0.035022 0.840367 -0.203728 0 255 0
0.005091 0.838333 0.135843 0 255 0
0.222591 -0.528751 0.347331 76 153 0
0.099146 -0.520319 0.379602 76 153 0
-0.050387 -0.476551 0.258092 0 127 127
0.188089 -0.225744 -0.032064 0 127 127
0.246489 -0.103609 -0.754739 76 0 153
-0.093188 -0.468267 0.266135 76 153 0
-0.195155 -0.242639 -0.012380 0 127 127
0.055349 -0.615338 0.337711 76 153 0
-0.047010 0.722629 0.167518 0 255 0
0.124380 -0.605189 0.507708 76 153 0
0.269310 0.091010 -0.369725 76 0 153
-0.058753 -0.375174 -0.220656 153 0 76
0.127098 -0.128765 0.733711 76 153 0
0.086611 0.272435 0.032026 153 0 76
-0.139746 -0.070992 0.620593 76 153 0
-0.074357 0.100009 -0.857343 76 0 153
0.198752 0.154158 0.091771 153 0 76
-0.056467 -0.258454 -0.837092 76 0 153
-0.108442 -0.287615 0.090625 153 0 76
0.316878 -0.239564 0.439795 76 153 0
-0.071239 -0.009943 -0.488670 153 0 76
-0.020865 -0.381891 0.055728 0 127 127
-0.306159 0.078577 -0.294891 153 0 76
-0.107692 0.562393 0.081110 0 255 0
-0.068385 -0.089520 0.706572 76 153 0
0.043990 0.796748 0.129780 0 255 0
-0.133573 0.193697 -0.387536 153 0 76
-0.212409 -0.317034 -0.184473 153 0 76
-0.315810 -0.279494 0.602022 76 153 0
0.195845 -0.477653 0.488979 76 153 0
0.175735 0.233739 -0.420265 76 0 153
0.258019 -0.198757 0.398815 76 153 0
-0.044862 0.423552 -0.018527 0 255 0
-0.309442 -0.279442 0.630546 76 153 0
0.132403 -0.100191 0.660470 76 153 0
-0.125443 0.020853 -0.283027 76 0 153
-0.104911 0.290200 -0.257386 76 0 153
0.321067 -0.368856 0.485369 76 153 0
-0.254669 0.152427 -0.636204 76 0 153
0.018727 0.750763 0.063916 0 255 0
-0.016767 -0.636516 0.389457 76 153 0
-0.029270 -0.344437 -0.310328 153 0 76
-0.050338 0.812935 -0.107008 0 255 0
-0.038602 0.051696 0.214076 153 0 76
-0.202162 -0.044466 -0.307189 76 0 153
0.183103 -0.066219 -0.857343 76 0 153
-0.090868 -0.022234 0.526274 76 153 0
-0.036020 -0.057670 -0.492490 153 0 76
-0.333218 -0.123591 -0.250667 153 0 76
-0.273658 0.201349 -0.169950 153 0 76
-0.036631 0.295637 -0.204110 76 0 153
-0.109930 -0.235599 -0.735910 76 0 153
-0.287679 -0.188326 0.404455 76 153 0
0.164392 0.455202 0.043899 0 255 0
0.096277 0.360432 0.116219 0 255 0
-0.332445 -0.307242 0.498008 76 153 0
0.253492 -0.057775 -0.857343 76 0 153
0.061511 -0.132291 0.583284 76 153 0
0.066720 0.474048 0.250085 0 255 0
-0.207364 -0.431123 0.405048 76 153 0
0.138675 -0.064881 0.552399 76 153 0
-0.040861 0.620803 -0.043584 0 255 0
0.248075 -0.272846 -0.216665 153 0 76
0.101892 -0.109460 0.506209 76 153 0
-0.269454 0.115463 -0.733520 76 0 153
-0.223418 -0.133636 -0.353214 76 0 153
0.135306 0.263113 -0.573476 76 0 153
0.195722 -0.348030 0.318103 0 127 127
0.040095 0.810126 -0.069724 0 255 0
-0.188243 0.515766 0.054024 0 255 0
0.075093 -0.543763 0.245666 76 153 0
0.148072 -0.355666 -0.132752 153 0 76
0.183190 -0.302131 0.095789 0 127 127
-0.231719 -0.241019 0.450510 76 153 0
-0.142725 -0.356900 -0.092726 153 0 76
-0.025150 0.334009 -0.177616 153 0 76
0.285904 -0.035675 -0.344620 153 0 76
-0.007362 0.314648 -0.237401 153 0 76
-0.058993 0.000881 0.364801 0 127 127
-0.074179 0.011022 0.339008 0 127 127
0.137152 -0.181084 -0.009117 0 127 127
-0.089301 -0.624243 0.346676 76 153 0
0.046682 0.667583 0.241480 0 255 0
-0.052411 0.599356 0.002202 0 255 0
-0.186823 -0.634088 0.459030 76 153 0
-0.244084 -0.234303 0.169951 0 127 127
-0.040670 0.008486 -0.287602 76 0 153
0.068285 0.332938 -0.160787 153 0 76
0.336279 -0.094044 -0.046933 153 0 76
-0.303742 -0.240130 0.455710 76 153 0
0.172967 0.237090 -0.226138 76 0 153
-0.248528 -0.493503 0.388444 76 153 0
-0.248029 -0.129314 0.566024 76 153 0
0.314282 -0.346087 0.355367 76 153 0
0.232632 -0.108576 -0.346352 76 0 153
-0.231167 0.187844 -0.449047 76 0 153
-0.141808 -0.362547 -0.141853 153 0 76
0.284675 -0.210536 -0.247143 153 0 76
0.106351 -0.553374 0.284731 76 153 0
-0.259207 -0.530287 0.484722 76 153 0
0.073176 0.585868 0.544615 0 255 0
0.096157 -0.214192 0.719119 76 153 0
-0.148616 -0.435331 0.251673 0 127 127
0.224588 -0.183163 0.631828 76 153 0
-0.089679 0.693506 0.107737 0 255 0
-0.171243 0.244087 -0.804481 76 0 153
-0.181146 -0.344221 -0.156237 153 0 76
-0.217332 -0.302325 0.640021 76 153 0
-0.179822 -0.233489 0.628321 76 153 0
0.157273 0.345589 0.016362 153 0 76
-0.208210 0.119076 0.121013 153 0 76
-0.108309 -0.113410 0.684971 76 153 0
-0.059121 0.800807 0.149342 0 255 0
-0.161381 0.173638 0.114953 153 0 76
-0.022389 0.291674 0.016229 153 0 76
-0.116324 -0.225210 -0.624757 76 0 153
0.094472 -0.150478 0.753569 76 153 0
0.266388 -0.051257 -0.625917 76 0 153
0.009475 0.447200 -0.069010 0 255 0
0.036312 0.689469 0.418684 0 255 0
-0.140287 0.050939 -0.458695 153 0 76
-0.055249 0.666392 0.273458 0 255 0
-0.050399 0.655458 0.095329 0 255 0
0.040254 -0.149588 -0.346075 76 0 153
0.058223 0.733703 0.214115 0 255 0
-0.133659 -0.104517 -0.329403 76 0 153
-0.216706 0.047624 -0.857343 76 0 153
-0.142647 -0.041198 0.365698 0 127 127
-0.064053 0.257475 -0.195498 153 0 76
-0.169159 0.029606 -0.857343 76 0 153
-0.019278 -0.109812 0.215396 153 0 76
-0.010467 -0.263028 -0.816485 76 0 153
-0.032408 -0.045514 0.457966 0 127 127
0.201368 -0.359272 0.251276 0 127 127
0.266540 0.110355 -0.323429 153 0 76
0.161590 0.244201 -0.376418 76 0 153
-0.160887 0.132599 -0.414302 153 0 76
-0.092230 -0.524333 0.368747 76 153 0
-0.198380 -0.162640 0.663092 76 153 0
-0.283115 -0.018754 -0.570877 76 0 153
-0.147982 0.262983 -0.333953 76 0 153
-0.190727 -0.194375 -0.842795 76 0 153
-0.010660 0.713657 0.073805 0 255 0
-0.137614 -0.330052 0.327823 0 127 127
-0.146905 0.523151 -0.012879 0 255 0
0.239785 -0.341148 0.321824 76 153 0
-0.188511 -0.510496 0.290402 76 153 0
0.173976 0.515033 0.107302 0 255 0
-0.229576 0.153706 -0.233883 76 0 153
-0.026393 -0.231331 -0.402473 76 0 153
0.055929 0.300117 -0.018400 153 0 76
-0.214623 -0.134843 0.383594 0 127 127
0.234588 -0.271656 -0.018560 153 0 76
-0.112712 0.770617 0.125271 0 255 0
-0.251409 -0.535969 0.395496 76 153 0
0.116244 -0.359269 -0.064942 153 0 76
0.045091 0.652884 0.511288 0 255 0
0.200153 0.211701 -0.673208 76 0 153
0.218045 -0.181187 0.693035 76 153 0
-0.058280 -0.329013 -0.031712 0 127 127
0.266472 -0.246125 -0.042393 153 0 76
0.128084 0.140463 -0.419611 153 0 76
0.012274 -0.072158 -0.491905 153 0 76
-0.142863 0.264160 -0.768493 76 0 153
0.053414 0.653549 0.358708 0 255 0
-0.210463 0.179028 -0.341916 153 0 76
-0.158167 -0.022189 -0.460593 153 0 76
0.126888 -0.140348 0.180789 153 0 76
-0.224701 -0.404069 0.422966 76 153 0
-0.005108 0.299630 -0.469946 76 0 153
0.043230 0.502559 0.540172 0 255 0
0.123968 -0.156606 0.421606 0 127 127
-0.131719 0.269103 -0.644727 76 0 153
0.145432 -0.198008 -0.489225 76 0 153
-0.339422 0.094398 -0.153221 153 0 76
-0.283515 -0.013987 -0.520651 76 0 153
-0.113930 -0.430183 0.197252 0 127 127
0.032076 -0.033517 -0.303139 76 0 153
0.031910 -0.622225 0.327357 76 153 0
-0.017233 0.053456 -0.270967 76 0 153
-0.140961 -0.216416 0.669621 76 153 0
-0.325537 -0.379803 0.437376 76 153 0
0.257458 -0.261886 0.364681 76 153 0
-0.137309 0.100075 -0.253722 76 0 153
-0.063442 -0.226878 -0.402508 76 0 153
0.092511 -0.535982 0.399930 76 153 0
-0.020932 0.297975 -0.654199 76 0 153
-0.350627 0.054746 -0.178081 153 0 76
-0.118242 -0.112026 -0.857343 76 0 153
-0.169234 -0.612547 0.406508 76 153 0
-0.096080 -0.358025 -0.017370 153 0 76
-0.029335 -0.060802 0.620878 76 153 0
-0.287533 -0.241964 -0.189459 153 0 76
-0.285897 0.052726 -0.367433 153 0 76
-0.240514 -0.137012 -0.824391 76 0 153
-0.209524 -0.169234 -0.681687 76 0 153
0.036400 -0.628565 0.388532 76 153 0
-0.055346 0.190994 -0.103955 153 0 76
0.242305 0.152534 -0.838513 76 0 153
-0.241686 -0.598009 0.508277 76 153 0
-0.210827 0.213846 -0.415855 76 0 153
-0.358734 0.000099 -0.100709 153 0 76
-0.155749 -0.636364 0.490852 76 153 0
-0.073640 -0.551743 0.408646 76 153 0
0.224706 -0.126333 0.020487 0 127 127
0.118904 -0.191082 0.637967 76 153 0
0.067653 -0.419338 0.146722 0 127 127
-0.070566 -0.155277 0.750975 76 153 0
0.136528 0.429250 0.147422 0 255 0
-0.089480 -0.606671 0.312949 76 153 0
0.081802 -0.219280 0.387718 0 127 127
-0.237789 -0.077743 0.170635 0 127 127
0.188048 -0.011427 0.197234 0 127 127
-0.250009 -0.179601 0.163409 0 127 127
-0.223549 -0.371295 0.354321 76 153 0
-0.016750 -0.122180 -0.335937 76 0 153
-0.115726 0.355533 0.145469 153 0 76
-0.198984 -0.069202 0.051378 0 127 127
0.228698 0.151214 0.062898 153 0 76
0.143768 -0.196539 -0.448804 76 0 153
0.031661 -0.111362 0.028582 0 127 127
-0.002005 0.279465 0.156958 153 0 76
-0.069901 -0.049287 0.591109 76 153 0
-0.073778 -0.384118 0.077088 0 127 127
-0.026772 0.047111 0.114268 0 127 127
0.001287 0.384143 -0.155438 153 0 76
-0.160719 -0.188136 -0.383766 76 0 153
-0.243937 -0.330793 0.327423 0 127 127
-0.058308 -0.625875 0.355089 76 153 0
-0.002299 -0.089902 0.457672 0 127 127
-0.195378 -0.503062 0.497410 76 153 0
-0.044500 -0.535413 0.364046 76 153 0
0.157241 -0.162154 0.708039 76 153 0
-0.059958 0.486065 0.584927 0 255 0
0.293251 -0.117087 0.047374 153 0 76
0.265510 -0.059320 -0.782740 76 0 153
-0.034531 0.762810 0.243080 0 255 0
0.062187 -0.112737 0.445326 0 127 127
-0.292770 -0.539820 0.537554 76 153 0
0.273515 -0.008893 -0.702714 76 0 153
-0.138486 0.591784 0.018366 0 255 0
-0.353935 -0.010580 -0.053576 153 0 76
-0.252257 -0.569429 0.466383 76 153 0
-0.286353 -0.444769 0.421332 76 153 0
-0.214491 -0.215837 0.088089 0 127 127
0.288764 -0.503747 0.484167 76 153 0
0.135866 -0.044074 0.527307 76 153 0
0.051496 0.743616 0.151610 0 255 0
0.017733 0.773013 0.281854 0 255 0
