ply
format ascii 1.0
element vertex 1272
property float x
property float y
property float z
property uchar red
property uchar green
property uchar blue
end_header
-0.068553 -0.348425 -0.670701 76 0 153
-0.114520 0.513327 0.114569 0 255 0
0.005322 -0.320344 0.060002 0 127 127
-0.166368 -0.172867 -0.043766 0 127 127
-0.162821 -0.557207 0.649848 76 153 0
-0.209679 -0.103800 -0.529779 76 0 153
-0.061587 -0.346257 0.257520 76 0 153
0.140293 -0.042708 -0.146881 0 127 127
0.168571 -0.095885 -0.654864 0 127 127
-0.160429 -0.425958 0.571639 76 153 0
-0.074651 0.052194 0.219574 153 76 0
-0.209679 -0.049689 -0.668775 76 0 153
-0.054592 0.190947 0.184618 153 76 0
0.568888 0.546582 0.244793 0 255 0
0.520358 0.625984 0.048725 0 255 0
0.248945 -0.136152 0.059907 76 0 153
0.053506 0.232610 0.051056 153 76 0
0.041277 0.399980 0.168036 0 255 0
0.165450 -0.088352 -0.254452 0 127 127
-0.715049 0.533763 0.093893 0 255 0
0.003781 -0.320547 -0.000828 0 127 127
-0.160019 -0.092997 -0.181204 0 127 127
-0.023707 0.536847 0.001768 0 255 0
0.209998 -0.161367 0.320884 76 0 153
0.037022 -0.366043 0.136569 76 0 153
0.081371 0.190947 0.036171 153 76 0
0.155319 -0.231171 -0.709295 76 0 153
0.014309 0.174153 0.257905 153 76 0
0.135252 -0.125301 0.617832 0 127 127
0.028913 0.128440 0.032687 153 76 0
-0.127650 -0.154254 0.649359 0 127 127
0.085125 -0.299508 0.010226 0 127 127
-0.146560 -0.233750 -0.867520 0 127 127
-0.093268 0.613118 0.077101 0 255 0
0.108140 -0.535028 0.761960 76 153 0
0.060716 0.567201 0.128502 0 255 0
-0.055362 0.014537 -0.637684 0 127 127
-0.214066 0.574849 0.196188 0 255 0
0.034563 0.439881 0.170490 0 255 0
-0.389474 0.460416 0.171822 0 255 0
-0.004738 0.070487 0.138658 153 76 0
-0.041062 0.020418 -0.065932 0 127 127
0.024488 0.664865 0.164336 0 255 0
0.171053 -0.291358 0.225370 76 0 153
-0.051730 0.576254 0.072917 0 255 0
0.135582 -0.105599 -0.534602 76 0 153
-0.136380 -0.247060 -0.270875 0 127 127
-0.107973 -0.065731 -0.578839 76 0 153
-0.076027 -0.492069 0.830218 76 153 0
-0.186236 -0.173483 -0.145379 76 0 153
0.572525 0.580378 0.239946 0 255 0
0.170931 -0.101583 0.074619 0 127 127
0.139000 -0.069965 0.517129 0 127 127
0.037201 0.618981 0.021981 0 255 0
0.182469 -0.557207 0.617208 76 153 0
0.006444 0.075453 0.295741 76 0 153
0.173414 -0.382979 0.618188 0 127 127
-0.096238 -0.287197 -0.346414 0 127 127
-0.662874 0.475615 0.054194 0 255 0
-0.044655 -0.313224 -0.013098 0 127 127
-0.166776 -0.124529 0.399812 0 127 127
0.173881 -0.122582 -0.241603 0 127 127
0.002764 0.026188 0.008113 0 127 127
-0.113052 -0.274295 -0.171840 0 127 127
0.068870 0.656576 0.129904 0 255 0
-0.114837 -0.319905 0.479710 0 127 127
-0.175686 0.020283 -0.014354 76 0 153
-0.017117 -0.317155 0.333294 0 127 127
-0.034896 0.468620 0.036036 0 255 0
0.126262 -0.319636 -0.519501 76 0 153
-0.047497 -0.072297 -0.259138 76 0 153
-0.120618 -0.088410 -0.658460 76 0 153
0.031619 -0.004107 0.523655 0 127 127
-0.146908 -0.118655 0.566885 0 127 127
-0.048947 0.606039 0.123848 0 255 0
0.119476 -0.156280 -0.226307 76 0 153
-0.000388 0.228522 0.049012 153 76 0
0.167314 -0.305253 0.070151 76 0 153
-0.058249 0.013341 -0.079041 0 127 127
0.036655 -0.010568 -0.638738 76 0 153
0.126606 0.610120 0.112901 0 255 0
0.217523 -0.060216 -0.592338 76 0 153
-0.134198 -0.002541 -0.145426 76 0 153
-0.205405 0.006078 0.052018 76 0 153
-0.268377 0.518771 0.203422 0 255 0
-0.034152 0.107974 0.189598 153 76 0
0.092655 -0.492386 0.477692 76 153 0
-0.162975 -0.194118 -0.436143 0 127 127
0.235745 -0.132705 0.257953 76 0 153
-0.147752 -0.230873 -0.092203 0 127 127
0.151679 -0.141071 -0.709295 76 0 153
0.286297 0.589374 0.052540 0 255 0
0.031469 -0.043846 -0.920918 0 127 127
0.096274 -0.414555 0.504334 0 127 127
0.041505 -0.342965 -0.709295 76 0 153
0.128774 0.049287 0.135291 153 76 0
-0.085061 -0.004886 0.419863 76 0 153
0.062544 0.125765 0.058775 153 76 0
0.060716 0.299007 0.130383 0 255 0
-0.209679 -0.114559 -0.597136 76 0 153
-0.171463 -0.016571 -0.472723 76 0 153
-0.018820 0.029712 -0.472723 76 0 153
-0.167357 -0.165351 -0.415998 0 127 127
0.207689 -0.000144 0.132837 76 0 153
-0.367980 0.450804 0.110220 0 255 0
-0.038222 -0.315044 -0.532387 0 127 127
-0.003803 0.456841 0.202690 0 255 0
0.227657 -0.224829 0.163825 76 0 153
-0.027454 0.071648 0.304486 76 0 153
0.130930 0.148141 0.111979 153 76 0
-0.379495 0.621248 0.180030 0 255 0
0.621725 0.442755 0.184127 0 255 0
0.161761 -0.425958 0.640609 76 153 0
0.072084 0.550891 0.015176 0 255 0
0.008337 -0.387720 -0.613748 76 0 153
-0.007015 -0.319153 -0.636148 0 127 127
0.043855 -0.315271 -0.544853 0 127 127
-0.124711 0.028755 -0.647162 76 0 153
0.059633 -0.310067 0.124369 0 127 127
0.266827 0.559521 0.042964 0 255 0
-0.134548 -0.051160 0.444781 0 127 127
0.146720 0.006106 0.335748 76 0 153
0.391949 0.452112 0.150083 0 255 0
-0.081397 0.208026 0.114744 153 76 0
0.201560 -0.277279 0.118971 76 0 153
0.223022 -0.110375 0.283867 76 0 153
-0.164822 -0.184607 0.166962 0 127 127
-0.106038 -0.279678 -0.264973 0 127 127
0.033779 0.096993 0.179973 76 0 153
-0.168792 -0.154454 -0.087020 0 127 127
0.620956 0.476362 0.221126 0 255 0
-0.146740 -0.060937 -0.751961 0 127 127
0.153976 0.493906 0.073379 0 255 0
-0.139106 -0.425958 0.521559 76 153 0
0.176419 -0.141863 -0.656925 0 127 127
-0.105353 -0.425958 0.542084 76 153 0
0.083952 -0.087234 -0.920918 0 127 127
-0.026155 0.022381 -0.330013 0 127 127
-0.149393 -0.067344 -0.804985 0 127 127
0.373142 0.494150 0.202445 0 255 0
0.167411 -0.093086 0.032884 0 127 127
0.059361 -0.268070 -0.617348 76 0 153
0.173120 -0.116808 -0.578498 0 127 127
-0.008133 0.093250 -0.009200 76 0 153
0.045251 -0.557207 0.828166 76 153 0
-0.096595 0.049287 0.041490 153 76 0
-0.009052 -0.099524 0.680414 0 127 127
-0.437676 0.633917 0.172456 0 255 0
-0.251222 0.466709 0.095336 0 255 0
0.540436 0.438978 0.073594 0 255 0
0.000837 -0.320187 -0.080997 0 127 127
-0.120965 -0.024421 0.375813 0 127 127
0.187642 -0.284198 -0.556068 76 0 153
0.062398 -0.361263 0.059505 76 0 153
-0.003409 -0.215742 0.769328 0 127 127
-0.088765 -0.331679 -0.472723 76 0 153
-0.006117 -0.279666 -0.626131 76 0 153
-0.253222 -0.172420 0.121257 76 0 153
0.059121 0.177303 0.232033 153 76 0
0.190209 -0.282716 -0.577165 76 0 153
0.171971 -0.194763 0.437378 0 127 127
0.532712 0.651380 0.164087 0 255 0
0.160431 -0.425958 0.678065 76 153 0
-0.046574 0.667189 0.144547 0 255 0
-0.005687 0.025075 -0.571449 0 127 127
-0.007607 0.574367 0.070196 0 255 0
0.217523 -0.057114 -0.542896 76 0 153
-0.051525 0.049287 0.224251 153 76 0
-0.112688 -0.274575 0.252412 0 127 127
-0.073071 0.156705 0.087338 153 76 0
-0.003385 0.053495 0.035318 153 76 0
-0.056556 0.097084 0.094845 76 0 153
-0.133879 -0.137989 0.621514 0 127 127
-0.195689 0.012424 0.208935 76 0 153
-0.075408 -0.254414 -0.683424 76 0 153
0.121849 -0.322184 -0.537770 76 0 153
-0.197899 -0.244422 -0.050427 76 0 153
0.445208 0.645975 0.131337 0 255 0
0.242516 -0.102764 0.043957 76 0 153
0.161054 -0.216515 -0.469616 0 127 127
0.135751 -0.500220 0.507432 76 153 0
0.071859 -0.261117 0.775086 0 127 127
0.115052 0.478832 0.116830 0 255 0
-0.150503 0.013864 -0.505345 76 0 153
0.238587 -0.173217 0.208429 76 0 153
0.147412 -0.321112 0.042846 76 0 153
-0.059316 -0.445077 0.466929 76 153 0
-0.124880 0.174619 0.081649 153 76 0
0.170027 -0.099400 -0.626127 0 127 127
-0.031473 0.031660 -0.709295 76 0 153
-0.021083 0.084985 0.262109 76 0 153
0.139048 -0.126624 -0.549203 76 0 153
0.174805 -0.129603 0.256878 0 127 127
-0.047358 -0.312105 0.210094 0 127 127
-0.017251 -0.317805 -0.459205 0 127 127
-0.088940 -0.001456 -0.797588 0 127 127
0.136016 -0.176175 0.436203 76 0 153
0.233557 0.620532 0.105640 0 255 0
0.043533 -0.074990 0.488313 76 0 153
-0.209679 -0.240055 -0.649409 76 0 153
0.161294 -0.215934 -0.058621 0 127 127
0.189867 -0.163164 0.363692 76 0 153
0.217523 -0.052154 -0.515330 76 0 153
-0.006544 -0.384226 -0.526785 76 0 153
0.176078 -0.144243 0.427853 0 127 127
0.011182 0.028182 0.373589 0 127 127
-0.072052 0.007623 -0.668623 0 127 127
0.104443 -0.007707 0.000629 0 127 127
-0.246619 0.463393 0.114574 0 255 0
-0.112418 0.035853 -0.678769 76 0 153
0.012205 -0.012627 0.552192 0 127 127
0.114635 -0.094604 -0.225388 76 0 153
0.159779 -0.219592 -0.677097 0 127 127
0.168724 -0.397555 0.700181 0 127 127
-0.003271 -0.283665 0.798948 0 127 127
0.390349 0.572442 0.031841 0 255 0
-0.010857 0.159536 0.197154 153 76 0
0.025465 -0.278914 -0.194401 76 0 153
0.355055 0.488486 0.050627 0 255 0
-0.134727 -0.249213 -0.608917 0 127 127
-0.095749 0.193487 0.165903 153 76 0
-0.132859 -0.251648 0.033158 0 127 127
-0.043141 -0.280216 -0.189245 76 0 153
-0.131154 -0.161012 -0.489119 76 0 153
0.032876 -0.109684 -0.920918 0 127 127
-0.197904 -0.013503 -0.665406 76 0 153
0.155838 -0.281047 -0.472723 76 0 153
0.108992 -0.056839 -0.563663 76 0 153
0.167455 -0.093191 -0.495848 0 127 127
0.001548 0.033515 -0.709295 76 0 153
0.075594 0.009203 -0.776311 0 127 127
-0.407799 0.456368 0.077588 0 255 0
0.090909 -0.248539 -0.638278 76 0 153
0.636835 0.491063 0.017643 0 255 0
0.059993 0.070487 0.093077 153 76 0
0.080323 -0.495056 0.520763 76 153 0
0.681894 0.472109 0.180335 0 255 0
0.102976 0.049287 0.057715 153 76 0
-0.153332 -0.042986 -0.472723 76 0 153
0.045591 0.020791 -0.375931 0 127 127
-0.549675 0.529644 0.245564 0 255 0
0.140516 -0.263813 0.356513 76 0 153
-0.229528 -0.141814 -0.060872 76 0 153
-0.176865 -0.185400 -0.155526 76 0 153
0.103510 -0.111252 0.647335 0 127 127
0.224724 0.520853 0.197684 0 255 0
0.067295 -0.093039 0.487259 76 0 153
0.491464 0.599244 0.032306 0 255 0
0.216809 -0.019889 -0.689796 76 0 153
-0.018531 0.101667 0.143228 76 0 153
-0.029360 0.431734 0.104915 0 255 0
0.144654 -0.048391 -0.695319 0 127 127
0.217310 -0.251144 0.123302 76 0 153
0.147517 -0.103372 -0.472723 76 0 153
0.102073 -0.500637 0.822476 76 153 0
0.114270 -0.063717 -0.501652 76 0 153
0.032725 -0.316737 -0.411677 0 127 127
-0.054742 -0.469274 0.513005 76 153 0
-0.081227 0.479844 0.066580 0 255 0
0.120375 -0.019932 -0.027146 0 127 127
-0.035558 0.650173 0.183465 0 255 0
0.120387 -0.337850 0.068948 76 0 153
0.204860 -0.012990 -0.664542 76 0 153
0.199625 -0.009968 -0.646320 76 0 153
0.175008 -0.131145 -0.025266 0 127 127
0.217523 -0.202185 -0.622430 76 0 153
0.085934 -0.454393 0.474908 76 153 0
-0.257408 -0.145916 0.104222 76 0 153
-0.620064 0.429507 0.099598 0 255 0
-0.030932 -0.365764 0.167094 76 0 153
0.060820 0.019038 0.400799 76 0 153
0.157535 -0.313512 0.167187 76 0 153
0.097489 0.109415 0.094269 153 76 0
0.124736 -0.207832 -0.570955 76 0 153
-0.096137 0.064820 0.207169 153 76 0
0.124072 0.067568 0.183095 76 0 153
-0.590335 0.531778 0.247931 0 255 0
0.167403 -0.295883 -0.667311 76 0 153
-0.124840 -0.032155 0.041891 0 127 127
-0.076738 0.085543 0.019406 76 0 153
0.131503 -0.095750 -0.708556 76 0 153
-0.086602 -0.288359 -0.151658 76 0 153
0.234301 -0.051310 0.080985 76 0 153
0.031599 0.190602 0.030052 153 76 0
-0.080214 0.599783 0.153582 0 255 0
-0.165617 -0.178568 0.127265 0 127 127
-0.144472 -0.465322 0.682075 76 153 0
0.172251 -0.184043 -0.900141 0 127 127
0.115579 0.520323 0.172455 0 255 0
0.163158 -0.211434 -0.131537 0 127 127
0.004923 0.026144 0.261277 0 127 127
-0.207416 -0.146431 0.351356 76 0 153
-0.131318 -0.254117 0.395513 0 127 127
-0.071159 -0.302246 -0.314068 0 127 127
0.079008 -0.302041 0.181934 0 127 127
0.145160 -0.049050 -0.465336 0 127 127
-0.136749 -0.457041 0.514521 76 153 0
0.496881 0.515214 0.020189 0 255 0
0.479255 0.636918 0.073131 0 255 0
0.124600 -0.079086 -0.574912 76 0 153
0.090061 0.470886 0.167202 0 255 0
0.522851 0.655007 0.129402 0 255 0
-0.424362 0.642364 0.144438 0 255 0
0.030987 0.056609 -0.117983 76 0 153
0.365883 0.635468 0.139947 0 255 0
-0.244192 -0.195941 0.170430 76 0 153
-0.142113 -0.244659 0.416386 0 127 127
-0.209623 -0.020269 -0.521402 76 0 153
-0.113733 0.074173 0.184460 76 0 153
0.056762 0.093575 0.194818 76 0 153
0.147698 0.056756 0.073810 76 0 153
0.306091 0.630234 0.132936 0 255 0
-0.123501 -0.261765 0.362975 0 127 127
0.071300 -0.305234 -0.743612 0 127 127
-0.112093 -0.019222 -0.263307 0 127 127
0.156584 -0.227307 0.051630 0 127 127
0.069573 0.558575 0.182279 0 255 0
-0.053171 -0.393597 0.482351 0 127 127
-0.142662 -0.147509 -0.920918 0 127 127
-0.008066 0.070789 0.183717 153 76 0
-0.202910 -0.261677 -0.709295 76 0 153
0.094980 -0.344331 0.026867 76 0 153
-0.026369 -0.372780 -0.542522 76 0 153
-0.010937 -0.022266 0.461626 76 0 153
0.060716 0.341627 0.115528 0 255 0
0.155544 -0.463853 0.529428 76 153 0
-0.048947 0.638302 0.137418 0 255 0
0.200251 0.533253 0.049485 0 255 0
-0.013248 -0.380356 -0.658909 76 0 153
-0.100019 -0.334169 -0.029011 76 0 153
-0.164472 -0.106982 -0.353227 0 127 127
-0.660393 0.445938 0.144706 0 255 0
0.175026 -0.162967 -0.856949 0 127 127
-0.164278 -0.276302 0.554009 0 127 127
0.139399 -0.081500 -0.920918 0 127 127
-0.046571 -0.127663 -0.274089 76 0 153
0.113718 -0.317292 0.284327 76 0 153
0.119866 0.061433 -0.011048 76 0 153
-0.191547 -0.457958 0.664035 76 153 0
-0.021228 0.023029 -0.274756 0 127 127
0.021590 0.488246 0.176016 0 255 0
0.248606 -0.161365 0.098913 76 0 153
0.172898 -0.115122 -0.195437 0 127 127
0.153533 0.034721 0.240947 76 0 153
0.059814 0.044842 -0.472723 76 0 153
-0.055355 -0.308792 -0.344416 0 127 127
-0.114318 -0.020929 -0.230375 0 127 127
0.009404 0.282453 0.179975 0 255 0
-0.039123 -0.480407 0.797534 76 153 0
-0.167739 -0.218561 0.578005 0 127 127
-0.023454 -0.355213 0.814678 0 127 127
0.020042 0.052483 0.356472 76 0 153
0.269297 0.506495 0.197114 0 255 0
-0.163600 -0.016147 0.344826 76 0 153
0.169786 -0.071037 -0.153866 76 0 153
0.174641 -0.425958 0.742299 76 153 0
-0.045503 -0.361733 -0.573982 76 0 153
-0.160909 0.051529 0.092947 76 0 153
0.034041 -0.316563 -0.918539 0 127 127
-0.169671 -0.146475 -0.372398 0 127 127
-0.388650 0.592567 0.039758 0 255 0
-0.095249 -0.178985 -0.920918 0 127 127
0.120898 -0.273919 0.123749 0 127 127
-0.183686 -0.473603 0.709576 76 153 0
-0.204402 0.000814 0.013750 76 0 153
-0.165384 -0.186551 0.428141 0 127 127
-0.133152 0.023882 -0.596327 76 0 153
-0.088624 -0.453312 0.771291 76 153 0
-0.131275 -0.127155 -0.544436 76 0 153
-0.166142 -0.174580 -0.550623 0 127 127
0.201147 -0.255290 0.232000 76 0 153
-0.209679 -0.243606 -0.579799 76 0 153
-0.055161 -0.142559 -0.271119 76 0 153
0.098190 -0.291343 -0.857473 0 127 127
0.137489 -0.003516 0.361600 76 0 153
-0.091904 -0.003730 -0.773726 0 127 127
0.186280 -0.557207 0.703912 76 153 0
-0.348430 0.455936 0.151624 0 255 0
-0.100086 0.496145 0.161133 0 255 0
-0.207561 -0.046200 -0.064875 76 0 153
-0.177840 -0.025180 -0.104606 76 0 153
0.653206 0.437470 0.102142 0 255 0
-0.123394 -0.192136 -0.535587 76 0 153
0.707845 0.601850 0.079282 0 255 0
0.117947 -0.557207 0.782467 76 153 0
-0.002233 0.025530 0.087615 0 127 127
-0.089317 -0.266715 -0.183273 76 0 153
-0.082355 -0.069576 0.610263 0 127 127
-0.168186 -0.135191 -0.735548 0 127 127
0.107852 -0.055353 -0.525150 76 0 153
0.097376 -0.297093 0.409063 0 127 127
-0.503896 0.558549 0.015193 0 255 0
-0.144879 -0.511702 0.778953 76 153 0
-0.052559 -0.309950 -0.595272 0 127 127
-0.148828 -0.315510 0.006724 76 0 153
0.055577 0.017495 0.154323 0 127 127
-0.016229 0.258371 0.183577 153 76 0
0.011531 -0.279986 -0.598632 76 0 153
0.706575 0.476898 0.143387 0 255 0
0.175772 -0.260675 0.606770 0 127 127
0.141276 -0.143546 -0.673231 76 0 153
-0.106503 -0.557207 0.516430 76 153 0
0.156048 -0.226512 -0.148063 76 0 153
-0.019088 0.134530 -0.018197 153 76 0
0.113356 -0.342774 0.126523 76 0 153
-0.000733 0.095801 0.196223 153 76 0
0.068173 -0.350963 -0.472723 76 0 153
0.011182 -0.277086 0.429853 76 0 153
0.036879 -0.181503 -0.263883 76 0 153
0.193866 0.013320 0.066709 76 0 153
-0.160501 -0.094159 -0.788942 0 127 127
0.151617 -0.057466 -0.766558 0 127 127
-0.062483 -0.362996 0.146275 76 0 153
0.027492 -0.317426 -0.707474 0 127 127
0.130930 0.181540 0.110015 153 76 0
-0.236768 -0.040183 0.118746 76 0 153
-0.060678 -0.306587 -0.152538 0 127 127
-0.027102 -0.372357 -0.561833 76 0 153
0.170694 -0.285157 0.249114 76 0 153
-0.134674 -0.044971 0.299624 0 127 127
0.068686 0.082629 0.002214 76 0 153
-0.134894 -0.287040 0.331075 76 0 153
0.241948 -0.070621 0.136528 76 0 153
0.038561 0.021716 0.050173 0 127 127
0.152990 -0.164940 -0.472723 76 0 153
-0.153372 -0.105968 -0.201107 76 0 153
0.545643 0.427862 0.106313 0 255 0
0.011673 0.263797 0.091331 0 255 0
0.033504 0.083612 0.259364 76 0 153
-0.131979 -0.506973 0.718595 76 153 0
-0.111399 -0.340212 0.030302 76 0 153
0.048020 -0.354859 0.232396 76 0 153
-0.116413 -0.254442 -0.472723 76 0 153
-0.169100 0.030620 0.225563 76 0 153
-0.589129 0.665201 0.091795 0 255 0
-0.087502 0.481590 0.135168 0 255 0
0.015913 0.545965 0.177860 0 255 0
0.131529 -0.262967 -0.293684 0 127 127
0.612665 0.500213 0.008126 0 255 0
0.059192 0.522315 0.229950 0 255 0
-0.359008 0.525109 0.032209 0 255 0
-0.178667 -0.284851 -0.574894 76 0 153
-0.152014 0.012992 -0.614301 76 0 153
-0.215472 -0.075703 0.304006 76 0 153
-0.081651 0.196032 0.096118 153 76 0
0.168124 -0.094807 -0.354398 0 127 127
0.088472 -0.081232 -0.242179 76 0 153
0.026732 0.180228 0.232389 153 76 0
0.189518 -0.018946 -0.052071 76 0 153
-0.129628 -0.198009 0.683027 0 127 127
-0.067679 -0.103378 -0.262432 76 0 153
-0.149759 -0.068227 -0.288578 0 127 127
0.118930 -0.217458 -0.655591 76 0 153
0.175130 -0.171098 0.441593 0 127 127
-0.048759 0.018623 0.340641 0 127 127
-0.093659 -0.047077 -0.536864 76 0 153
0.048866 0.250628 0.172798 153 76 0
0.172220 -0.109973 -0.224891 0 127 127
-0.018535 -0.312374 -0.920918 0 127 127
-0.662578 0.457988 0.076857 0 255 0
-0.125960 -0.260639 -0.142938 0 127 127
-0.040275 -0.557207 0.489957 76 153 0
0.167504 -0.219703 0.630841 0 127 127
-0.166959 -0.125872 -0.672758 0 127 127
0.145794 -0.210475 -0.472723 76 0 153
-0.209679 -0.061264 -0.548121 76 0 153
-0.046788 -0.128815 0.503207 76 0 153
-0.094453 -0.005686 0.088585 0 127 127
-0.064871 0.010598 0.026367 0 127 127
-0.257563 -0.124376 0.100229 76 0 153
0.166649 -0.091246 -0.735199 0 127 127
-0.005242 0.302367 0.069427 0 255 0
0.096022 -0.350023 0.145930 76 0 153
0.075710 -0.135966 0.694344 0 127 127
0.004329 -0.280934 -0.694487 76 0 153
0.176098 -0.139426 -0.203590 0 127 127
0.137928 -0.254628 -0.401311 0 127 127
0.122731 -0.428235 0.559466 76 153 0
0.016648 -0.318853 -0.271651 0 127 127
0.043239 0.229983 0.189645 153 76 0
0.064771 -0.307939 -0.912583 0 127 127
-0.155455 -0.212274 -0.212199 0 127 127
-0.075158 0.135061 0.014175 153 76 0
-0.129731 -0.171820 -0.590634 76 0 153
0.649345 0.494150 0.220409 0 255 0
0.045096 -0.273978 -0.530553 76 0 153
0.086354 -0.299177 0.388973 0 127 127
-0.106813 0.520612 0.076738 0 255 0
0.100515 -0.087920 0.620860 0 127 127
-0.130187 -0.330457 0.017716 76 0 153
-0.547700 0.626081 0.216105 0 255 0
0.022956 0.100326 0.147458 76 0 153
0.162419 -0.081034 -0.391483 0 127 127
-0.033419 0.683065 0.127684 0 255 0
-0.112601 -0.274642 0.016952 0 127 127
0.164086 -0.085059 -0.880797 0 127 127
0.132668 0.028690 -0.485748 76 0 153
0.001622 0.149049 0.222847 153 76 0
0.135943 -0.037038 0.034478 0 127 127
0.134674 -0.311223 -0.472723 76 0 153
0.124006 -0.295305 -0.091021 76 0 153
-0.151320 -0.327334 0.098709 76 0 153
0.009659 -0.376112 0.463684 0 127 127
-0.020011 0.414080 0.074226 0 255 0
-0.013799 0.300480 0.174724 0 255 0
-0.119427 -0.218111 -0.709295 76 0 153
-0.201330 -0.172031 -0.709295 76 0 153
-0.174409 -0.012252 -0.709295 76 0 153
-0.019085 0.261511 0.162250 153 76 0
-0.088827 -0.292884 -0.512540 0 127 127
0.175860 -0.137619 -0.128586 0 127 127
-0.191843 0.488759 0.175562 0 255 0
0.715973 0.522451 0.171750 0 255 0
0.118048 -0.486225 0.810221 76 153 0
0.016287 0.428684 0.143463 0 255 0
-0.106799 0.497521 0.130086 0 255 0
0.028691 0.071160 0.067927 153 76 0
0.132067 -0.008157 -0.472723 76 0 153
0.017119 0.015240 -0.709295 76 0 153
0.066342 -0.026619 -0.221451 76 0 153
-0.219118 0.501155 0.188532 0 255 0
0.074157 -0.382515 0.805439 0 127 127
-0.075517 0.082430 0.003181 76 0 153
-0.164912 -0.183922 -0.119621 0 127 127
-0.157838 -0.218636 0.636975 0 127 127
-0.111789 0.036017 -0.100645 76 0 153
-0.084270 -0.277954 0.401737 76 0 153
0.050653 0.049287 0.028970 153 76 0
0.153462 -0.197795 0.656244 0 127 127
-0.157073 -0.085885 0.169506 0 127 127
0.028369 0.049287 0.211407 153 76 0
0.121752 0.190947 0.076171 153 76 0
0.212607 -0.170253 -0.078913 76 0 153
-0.144965 -0.557207 0.613069 76 153 0
0.121275 -0.330962 0.011292 76 0 153
0.014712 -0.305726 0.380903 76 0 153
0.122663 0.502092 0.174996 0 255 0
0.580396 0.652803 0.183699 0 255 0
-0.156525 -0.414269 0.587641 0 127 127
-0.158373 -0.205229 -0.657563 0 127 127
0.406424 0.452719 0.085717 0 255 0
-0.131839 -0.041276 -0.066138 0 127 127
-0.038211 0.577790 0.090871 0 255 0
-0.074397 0.223223 0.117790 153 76 0
0.172675 -0.113422 -0.461769 0 127 127
-0.204244 -0.196219 -0.106571 76 0 153
0.130930 0.166299 0.174351 153 76 0
-0.158086 -0.205923 -0.637701 0 127 127
-0.004492 0.446628 0.177748 0 255 0
0.162211 -0.080532 -0.545079 0 127 127
0.131153 0.529732 0.189076 0 255 0
0.011527 0.319536 0.179285 0 255 0
-0.412957 0.449711 0.156290 0 255 0
-0.209679 -0.212609 -0.638717 76 0 153
-0.082252 -0.425958 0.507000 76 153 0
0.538362 0.643010 0.056669 0 255 0
-0.317261 0.555938 0.035364 0 255 0
0.018001 0.049287 0.014149 153 76 0
-0.269619 0.625439 0.103659 0 255 0
0.107484 -0.165969 0.694697 0 127 127
-0.176779 -0.187464 0.383760 76 0 153
-0.589250 0.651845 0.062343 0 255 0
0.028452 0.023047 -0.866554 0 127 127
0.087930 -0.184524 0.725820 0 127 127
-0.598630 0.637592 0.206199 0 255 0
-0.269522 0.614126 0.077774 0 255 0
-0.146118 -0.138148 -0.709295 76 0 153
-0.102778 -0.349150 0.152928 76 0 153
-0.079477 0.087449 0.193843 76 0 153
0.032509 0.025092 0.367453 0 127 127
-0.232409 -0.087482 0.259128 76 0 153
0.566055 0.428574 0.083892 0 255 0
0.145085 -0.324833 0.059442 76 0 153
0.139208 -0.252096 0.336096 0 127 127
0.085845 -0.263320 -0.472723 76 0 153
0.188278 -0.075898 0.355782 76 0 153
-0.165372 0.578528 0.059576 0 255 0
-0.209679 -0.130410 -0.649356 76 0 153
-0.236479 -0.160435 0.257751 76 0 153
0.193719 -0.209527 -0.472723 76 0 153
0.410878 0.448159 0.140759 0 255 0
0.650605 0.593699 0.221716 0 255 0
0.172056 -0.281729 0.561970 0 127 127
0.101458 -0.005417 0.275684 0 127 127
0.176792 -0.149557 -0.347585 0 127 127
-0.026905 -0.208582 -0.259762 76 0 153
0.185077 -0.288270 0.064553 76 0 153
-0.614121 0.426142 0.135557 0 255 0
-0.608314 0.424995 0.117765 0 255 0
0.154690 -0.520997 0.660328 76 153 0
0.170905 0.580418 0.185276 0 255 0
0.003633 0.304284 0.180388 0 255 0
0.048658 0.562628 0.005099 0 255 0
-0.025305 0.079664 0.278602 76 0 153
0.217523 -0.128064 -0.549289 76 0 153
-0.143523 -0.021765 -0.472723 76 0 153
-0.080894 -0.081433 -0.252696 76 0 153
0.023572 -0.378924 -0.527537 76 0 153
0.092515 0.001446 0.182435 0 127 127
-0.071678 0.078659 -0.020144 76 0 153
0.202616 -0.034587 0.270068 76 0 153
-0.098843 -0.543291 0.540618 76 153 0
-0.168813 -0.154298 0.254813 0 127 127
-0.176595 0.618956 0.122911 0 255 0
-0.007859 0.069725 -0.472723 76 0 153
-0.158105 -0.088376 0.005654 0 127 127
-0.165292 -0.179694 0.345111 0 127 127
0.710201 0.539531 0.186509 0 255 0
-0.709301 0.499302 0.131354 0 255 0
-0.180330 0.027334 0.201693 76 0 153
-0.084255 0.161343 0.214029 153 76 0
0.153661 -0.060129 0.194688 0 127 127
0.200323 -0.442973 0.653246 76 153 0
0.024116 -0.020011 0.455066 76 0 153
0.276180 0.627138 0.131832 0 255 0
-0.555282 0.567095 0.005641 0 255 0
-0.110366 0.049287 0.190848 153 76 0
-0.007985 0.613676 0.176613 0 255 0
0.179677 -0.253429 -0.072128 76 0 153
0.154537 -0.062006 -0.436417 0 127 127
-0.133634 0.061606 0.015065 76 0 153
-0.007441 -0.266971 -0.214609 76 0 153
-0.639165 0.542337 0.013731 0 255 0
0.045610 -0.472058 0.797894 76 153 0
0.087941 0.004089 -0.372857 0 127 127
-0.130833 -0.163449 -0.573317 76 0 153
-0.024025 0.022661 -0.672432 0 127 127
0.150201 -0.311827 0.014615 76 0 153
-0.076222 0.049287 0.187403 153 76 0
-0.255289 -0.132499 0.164600 76 0 153
0.090107 0.183863 0.067937 153 76 0
0.073589 -0.383846 0.484539 0 127 127
0.179266 -0.047966 -0.709295 76 0 153
0.480267 0.625316 0.191351 0 255 0
-0.183635 -0.295671 0.155200 76 0 153
-0.243134 -0.175129 0.013104 76 0 153
-0.152550 -0.074965 0.104396 0 127 127
-0.137799 -0.308446 -0.498837 76 0 153
-0.052984 0.015522 -0.819792 0 127 127
0.136948 -0.049528 -0.920918 0 127 127
-0.124692 -0.232357 -0.472723 76 0 153
-0.044278 -0.254244 -0.216422 76 0 153
0.066953 -0.353878 -0.693807 76 0 153
-0.180755 0.031199 0.156554 76 0 153
0.198337 -0.533354 0.668333 76 153 0
-0.339960 0.586631 0.042160 0 255 0
0.349257 0.606796 0.190974 0 255 0
-0.118692 -0.203488 -0.554933 76 0 153
-0.278730 0.550069 0.208471 0 255 0
-0.168824 -0.140043 -0.095044 0 127 127
0.160129 -0.557207 0.707959 76 153 0
-0.209679 -0.027212 -0.496512 76 0 153
-0.151923 -0.281113 0.692237 0 127 127
-0.091653 -0.491202 0.823746 76 153 0
0.060716 0.458503 0.130383 0 255 0
0.114177 -0.223651 -0.626827 76 0 153
0.040728 -0.315683 0.156769 0 127 127
-0.151434 -0.246594 -0.709295 76 0 153
-0.060965 0.114602 0.182050 153 76 0
0.231477 -0.057533 0.209217 76 0 153
-0.032244 0.063542 -0.010601 153 76 0
-0.359393 0.506565 0.210490 0 255 0
0.038492 0.062358 -0.102128 76 0 153
0.116773 -0.027052 0.462760 0 127 127
0.238443 0.505644 0.192511 0 255 0
-0.025886 0.666938 0.146378 0 255 0
-0.442978 0.535022 0.226011 0 255 0
0.045788 0.145628 -0.006275 153 76 0
-0.077548 -0.299599 -0.654729 0 127 127
-0.165987 -0.160198 0.524313 0 127 127
-0.165037 -0.182977 0.096213 0 127 127
-0.110737 -0.425958 0.804206 76 153 0
-0.028779 -0.252028 0.451002 76 0 153
0.146579 -0.452603 0.701108 76 153 0
0.120847 -0.072288 -0.592576 76 0 153
-0.031212 0.345563 0.081239 0 255 0
0.075620 0.061627 -0.690737 76 0 153
-0.072824 -0.301556 0.027744 0 127 127
0.075023 0.216121 0.073709 153 76 0
-0.088677 0.126427 0.211476 153 76 0
0.136461 -0.259042 0.403680 0 127 127
-0.102412 -0.020061 0.456661 0 127 127
0.049550 0.019991 0.285805 0 127 127
-0.023563 -0.287863 -0.709295 76 0 153
-0.210048 -0.161732 -0.108807 76 0 153
0.565773 0.665720 0.141795 0 255 0
0.582773 0.422599 0.135751 0 255 0
-0.164340 -0.188268 0.245361 0 127 127
0.004776 0.079544 -0.709295 76 0 153
0.039682 0.640854 0.199506 0 255 0
0.108180 -0.009714 0.395722 0 127 127
-0.165399 -0.114029 0.049660 0 127 127
0.110460 -0.012325 0.298664 0 127 127
0.063640 -0.040563 0.582267 0 127 127
0.064204 -0.362344 0.121048 76 0 153
0.089842 -0.057991 0.590972 0 127 127
-0.138768 -0.192749 -0.204723 76 0 153
-0.006587 0.560419 0.177067 0 255 0
0.119230 -0.217066 -0.475313 76 0 153
-0.164228 -0.105130 0.228864 0 127 127
0.104300 -0.395457 0.788911 0 127 127
0.169378 -0.196419 -0.525485 0 127 127
0.276197 0.611546 0.074902 0 255 0
-0.364015 0.573788 0.033732 0 255 0
-0.249315 -0.068718 0.116181 76 0 153
-0.125365 -0.261415 -0.271513 0 127 127
0.113276 0.062463 0.250123 76 0 153
-0.104061 0.480293 0.109065 0 255 0
0.032489 0.022515 -0.176889 0 127 127
-0.086680 -0.083232 0.477507 76 0 153
0.225668 -0.220825 0.204973 76 0 153
-0.084836 -0.247181 -0.649982 76 0 153
0.209952 -0.198364 -0.070754 76 0 153
-0.024846 0.037715 0.381468 76 0 153
0.101642 -0.371377 0.789202 0 127 127
0.175623 -0.135820 -0.847590 0 127 127
0.626512 0.462988 0.034924 0 255 0
0.597335 0.450951 0.041291 0 255 0
0.093017 0.141946 0.162164 153 76 0
0.097481 -0.441685 0.770139 76 153 0
0.019839 -0.381079 -0.598927 76 0 153
-0.280065 0.629025 0.115863 0 255 0
-0.570077 0.611189 0.019917 0 255 0
0.008830 0.650739 0.066769 0 255 0
-0.161240 -0.198309 0.205367 0 127 127
0.138417 -0.557207 0.754972 76 153 0
-0.096715 -0.522793 0.483123 76 153 0
0.136956 -0.110727 -0.592839 76 0 153
-0.165278 -0.355653 0.605356 0 127 127
0.115891 0.074550 0.126838 76 0 153
-0.247737 -0.202751 0.104670 76 0 153
-0.169386 -0.144310 -0.253490 0 127 127
-0.168620 -0.138492 -0.529715 0 127 127
0.154154 -0.250922 -0.121840 76 0 153
-0.230856 -0.068273 0.252754 76 0 153
-0.052518 0.070436 -0.540127 76 0 153
0.144273 -0.246358 0.120224 0 127 127
0.430604 0.629695 0.071844 0 255 0
0.200111 -0.557167 0.654859 76 153 0
-0.057184 0.013782 -0.136910 0 127 127
-0.149091 0.014680 -0.648780 76 0 153
0.067793 0.001172 0.472006 0 127 127
-0.120168 -0.026066 -0.695040 0 127 127
-0.110750 0.509134 0.141471 0 255 0
0.242722 0.464049 0.119996 0 255 0
0.143740 -0.205004 0.677236 0 127 127
-0.039226 -0.333124 0.319830 76 0 153
0.315345 0.455485 0.124348 0 255 0
-0.021769 0.671946 0.078090 0 255 0
0.154011 0.018842 0.295387 76 0 153
-0.013219 -0.053038 -0.258520 76 0 153
-0.166885 -0.557207 0.730101 76 153 0
-0.123158 -0.316899 -0.607814 76 0 153
-0.101590 -0.011162 -0.160995 0 127 127
-0.478059 0.549676 0.230647 0 255 0
0.031309 -0.242215 -0.228522 76 0 153
-0.205649 -0.272765 0.052667 76 0 153
0.134814 -0.103744 -0.504003 76 0 153
-0.138812 -0.243890 -0.533378 0 127 127
-0.035972 -0.307632 0.373851 76 0 153
-0.174157 0.605283 0.163737 0 255 0
-0.328023 0.611569 0.184442 0 255 0
-0.150268 -0.069455 -0.897687 0 127 127
0.035268 -0.254996 -0.216615 76 0 153
-0.160105 -0.201048 -0.364129 0 127 127
0.004803 0.424124 0.123974 0 255 0
-0.493319 0.653956 0.124592 0 255 0
0.187216 -0.119668 -0.144824 76 0 153
-0.246468 -0.122828 -0.006109 76 0 153
0.175236 -0.132878 -0.802112 0 127 127
0.034723 -0.316474 -0.459875 0 127 127
0.171870 0.510151 0.060106 0 255 0
0.061238 0.038283 -0.709295 76 0 153
0.046937 0.082178 0.047631 153 76 0
0.135999 -0.314014 -0.571100 76 0 153
-0.167508 -0.130043 -0.779019 0 127 127
-0.115614 0.524697 0.138826 0 255 0
0.147326 -0.241553 0.385061 0 127 127
0.291832 0.465675 0.158272 0 255 0
-0.004251 -0.357338 -0.019793 76 0 153
-0.045437 0.082927 0.178589 153 76 0
-0.226462 0.620876 0.142167 0 255 0
0.146711 -0.051072 -0.496682 0 127 127
-0.052601 0.540652 0.183853 0 255 0
0.155896 -0.228967 -0.689762 0 127 127
-0.052656 0.018496 0.373296 0 127 127
-0.620214 0.614893 0.223870 0 255 0
0.396092 0.628386 0.076639 0 255 0
-0.079397 -0.035893 -0.594264 76 0 153
0.044997 -0.315121 -0.173977 0 127 127
-0.096990 -0.007633 -0.628865 0 127 127
0.129478 -0.196384 -0.694595 76 0 153
0.115688 -0.277917 -0.631457 0 127 127
-0.167540 -0.278517 0.626367 0 127 127
0.115183 -0.122682 0.646314 0 127 127
-0.103047 0.585587 0.170993 0 255 0
-0.714661 0.519366 0.101360 0 255 0
-0.092704 -0.004344 0.060621 0 127 127
0.103995 -0.218661 0.441622 76 0 153
0.065943 -0.307453 0.294894 0 127 127
0.026428 0.238600 0.054051 153 76 0
-0.462923 0.559886 0.226938 0 255 0
0.177054 -0.080818 0.375063 76 0 153
-0.115004 -0.272798 -0.735580 0 127 127
0.091988 -0.271546 -0.172122 76 0 153
0.044792 0.515454 0.236147 0 255 0
-0.105068 0.019954 0.368484 76 0 153
-0.155108 0.031815 0.263906 76 0 153
0.159054 -0.221343 -0.362714 0 127 127
-0.143387 -0.115896 0.442202 76 0 153
0.119001 -0.018878 -0.883904 0 127 127
0.021847 0.023916 -0.552813 0 127 127
-0.227472 -0.030512 0.157790 76 0 153
-0.062212 0.044357 -0.128163 76 0 153
-0.084314 0.137249 0.146834 153 76 0
0.333999 0.473883 0.178809 0 255 0
-0.122841 -0.264704 -0.335390 0 127 127
0.248815 -0.101925 0.121653 76 0 153
0.636517 0.528434 0.237447 0 255 0
-0.612745 0.589217 0.013073 0 255 0
-0.209679 -0.252454 -0.550394 76 0 153
0.089982 0.137188 0.071650 153 76 0
0.031546 0.036909 -0.150919 76 0 153
-0.163173 -0.130946 0.509027 0 127 127
-0.344608 0.631866 0.094172 0 255 0
-0.465958 0.466050 0.195222 0 255 0
0.155857 -0.065191 -0.659009 0 127 127
-0.164871 -0.110012 -0.548603 0 127 127
0.045624 -0.361456 0.199300 76 0 153
-0.028478 0.022075 0.272161 0 127 127
-0.122517 -0.092994 -0.554264 76 0 153
0.147941 -0.232237 0.689617 0 127 127
-0.248187 -0.149168 0.209736 76 0 153
-0.097082 -0.286549 0.015564 0 127 127
-0.141224 -0.306468 -0.608071 76 0 153
-0.134382 -0.044590 -0.556761 0 127 127
-0.215340 -0.205296 -0.067453 76 0 153
-0.150849 -0.223394 0.122092 0 127 127
0.016538 -0.331309 0.330014 76 0 153
-0.648649 0.629481 0.058164 0 255 0
-0.075331 -0.300518 0.095478 0 127 127
0.145619 -0.313840 0.220883 76 0 153
0.034514 0.075106 0.289632 76 0 153
-0.066623 -0.360810 0.044804 76 0 153
0.370152 0.613478 0.059404 0 255 0
0.217523 -0.041421 -0.615568 76 0 153
-0.060303 0.090963 0.065297 153 76 0
0.044048 -0.012834 -0.555410 76 0 153
0.038802 -0.481360 0.844216 76 153 0
-0.104828 -0.013647 -0.752563 0 127 127
-0.189442 -0.049166 0.344089 76 0 153
0.102447 0.019455 -0.472723 76 0 153
0.062781 0.014510 0.274269 0 127 127
-0.135162 -0.045606 -0.124429 0 127 127
0.554101 0.590850 0.233099 0 255 0
0.014290 0.024911 0.212760 0 127 127
-0.061559 0.011970 0.302250 0 127 127
0.547104 0.663448 0.102942 0 255 0
-0.036803 -0.529730 0.798495 76 153 0
0.132176 -0.015669 0.384382 76 0 153
-0.060064 -0.353327 -0.616332 76 0 153
0.165411 -0.205996 -0.413877 0 127 127
0.143340 -0.190993 -0.196845 76 0 153
0.195977 -0.227187 0.300083 76 0 153
0.003219 0.102821 0.090515 76 0 153
0.497963 0.502786 0.224382 0 255 0
0.176532 -0.142718 -0.535436 0 127 127
-0.076441 -0.300058 -0.505130 0 127 127
0.055620 -0.223969 0.467008 76 0 153
-0.128803 -0.256934 -0.403312 0 127 127
0.087576 -0.126972 0.485237 76 0 153
-0.025233 -0.361475 0.223389 76 0 153
-0.028810 -0.276678 -0.495878 76 0 153
-0.099222 -0.449541 0.485047 76 153 0
-0.056547 0.149131 0.221798 153 76 0
-0.021763 0.679971 0.094044 0 255 0
0.123480 -0.311050 -0.709295 76 0 153
-0.039839 -0.014339 -0.703477 76 0 153
0.089941 -0.249282 -0.550963 76 0 153
-0.508941 0.454835 0.060089 0 255 0
-0.027305 -0.109163 -0.920918 0 127 127
-0.209679 -0.134230 -0.624112 76 0 153
0.101248 0.053841 -0.066501 76 0 153
0.158095 -0.088498 0.483545 0 127 127
0.114828 -0.015676 -0.778632 0 127 127
0.150106 -0.302538 -0.019600 76 0 153
0.614565 0.657187 0.170004 0 255 0
-0.101215 0.172540 0.118320 153 76 0
0.198829 -0.253547 -0.013453 76 0 153
-0.048947 0.523646 0.126258 0 255 0
0.014198 -0.479911 0.501315 76 153 0
-0.039762 -0.081795 0.654306 0 127 127
0.037937 -0.363972 0.054867 76 0 153
-0.151082 0.488505 0.167204 0 255 0
-0.087090 -0.305758 0.347759 76 0 153
0.067626 -0.546673 0.836745 76 153 0
-0.127147 -0.183075 -0.653604 76 0 153
0.217523 -0.096304 -0.623563 76 0 153
0.141198 -0.170028 0.653473 0 127 127
0.132423 -0.419441 0.765685 0 127 127
-0.154010 -0.088414 0.455675 0 127 127
0.080389 0.645655 0.087304 0 255 0
0.252290 0.485104 0.179611 0 255 0
-0.332802 0.599354 0.051597 0 255 0
0.024831 0.206695 0.217412 153 76 0
-0.168929 -0.417554 0.656900 0 127 127
-0.037346 -0.316805 0.358112 76 0 153
-0.063683 0.061885 -0.090396 76 0 153
-0.195579 -0.275086 -0.674893 76 0 153
-0.133727 -0.219890 0.421351 76 0 153
-0.398731 0.575341 0.030192 0 255 0
-0.546401 0.475083 0.224875 0 255 0
0.130930 0.055275 0.111537 153 76 0
0.126840 -0.467818 0.564821 76 153 0
-0.077398 -0.299662 -0.466064 0 127 127
-0.105054 -0.139110 0.665314 0 127 127
-0.097127 -0.032289 -0.709295 76 0 153
0.044632 0.022336 -0.709295 76 0 153
0.023868 -0.317903 -0.371305 0 127 127
-0.624520 0.600304 0.021479 0 255 0
0.135184 -0.036050 0.187949 0 127 127
0.595156 0.432494 0.172030 0 255 0
0.026307 -0.428840 0.845861 76 153 0
-0.618819 0.434601 0.081488 0 255 0
-0.242411 -0.194946 0.189592 76 0 153
0.198520 -0.233407 -0.051879 76 0 153
0.104300 0.625349 0.104402 0 255 0
0.156162 -0.065928 -0.324812 0 127 127
-0.088303 0.511352 0.193001 0 255 0
0.112110 -0.013591 -0.731124 0 127 127
-0.194004 -0.025525 0.296644 76 0 153
-0.016461 -0.361192 0.000314 76 0 153
0.339098 0.498894 0.045759 0 255 0
-0.133911 -0.264244 0.716639 0 127 127
0.093505 -0.110566 0.475703 76 0 153
0.156414 0.029679 -0.021702 76 0 153
-0.183737 0.595773 0.068697 0 255 0
0.120245 0.506542 0.096624 0 255 0
-0.164028 -0.190640 -0.288207 0 127 127
0.534058 0.561426 0.234348 0 255 0
0.069075 -0.352653 -0.591515 76 0 153
-0.048299 -0.360119 -0.540227 76 0 153
0.142976 -0.046204 0.167141 0 127 127
-0.092720 -0.175182 0.708498 0 127 127
0.059745 -0.309006 0.340724 0 127 127
0.041080 -0.025808 0.570931 0 127 127
-0.011597 0.024297 -0.717057 0 127 127
-0.156793 -0.297480 -0.653719 76 0 153
-0.224836 -0.232886 0.203181 76 0 153
0.086533 0.636466 0.160139 0 255 0
0.203846 -0.114481 -0.472723 76 0 153
-0.202354 -0.076692 0.342926 76 0 153
0.075637 0.190947 0.192694 153 76 0
0.122294 -0.321926 -0.483672 76 0 153
-0.097984 -0.285857 0.209713 0 127 127
0.153413 -0.440086 0.777417 76 153 0
0.123204 -0.184756 -0.920918 0 127 127
-0.142071 -0.557207 0.735123 76 153 0
-0.096958 -0.332026 -0.595110 76 0 153
0.047230 0.078018 -0.700830 76 0 153
-0.161984 -0.196512 -0.493015 0 127 127
0.101133 0.604284 0.148627 0 255 0
0.129131 -0.266092 -0.856526 0 127 127
-0.089657 -0.557207 0.498179 76 153 0
0.127415 -0.085722 0.580620 0 127 127
-0.011170 0.699030 0.129931 0 255 0
-0.157510 -0.207314 0.244154 0 127 127
-0.184383 -0.246634 -0.709295 76 0 153
0.409259 0.485585 0.201446 0 255 0
0.032386 0.049287 -0.011673 153 76 0
-0.192915 -0.545098 0.650421 76 153 0
-0.086312 0.153077 0.020615 153 76 0
-0.588149 0.614489 0.022158 0 255 0
0.072297 -0.533370 0.469259 76 153 0
-0.132098 -0.153837 -0.543906 76 0 153
-0.401911 0.558086 0.026407 0 255 0
-0.209679 -0.160929 -0.503888 76 0 153
-0.125616 -0.438671 0.537836 0 127 127
-0.043562 -0.450717 0.508374 76 153 0
0.126258 -0.334883 0.762076 0 127 127
0.230298 -0.041346 0.095500 76 0 153
0.014785 0.365386 0.178227 0 255 0
-0.087603 -0.425958 0.490761 76 153 0
-0.064832 -0.354873 0.217313 76 0 153
0.158521 -0.222630 0.174334 0 127 127
0.076905 -0.001638 0.418793 76 0 153
-0.026984 0.099262 0.063185 76 0 153
0.162021 -0.284629 -0.048645 76 0 153
0.004628 0.650918 0.046137 0 255 0
0.159540 -0.074082 -0.674886 0 127 127
0.125839 0.510513 0.122199 0 255 0
0.025783 0.023398 -0.142466 0 127 127
-0.206068 0.618749 0.141495 0 255 0
0.158793 -0.221974 -0.557398 0 127 127
-0.183381 -0.104022 0.382583 76 0 153
-0.634637 0.454392 0.057174 0 255 0
-0.000532 0.100450 -0.567359 76 0 153
-0.101853 -0.229491 -0.482689 76 0 153
-0.167869 -0.161467 -0.730422 0 127 127
0.171867 -0.202951 0.456549 0 127 127
-0.134130 -0.273093 -0.135230 76 0 153
-0.101328 -0.230175 -0.509641 76 0 153
0.079220 -0.067274 -0.245395 76 0 153
-0.103691 0.040891 -0.567502 76 0 153
0.033662 -0.376903 0.817637 0 127 127
-0.039182 0.066170 -0.090781 76 0 153
-0.161173 -0.204797 -0.172725 76 0 153
-0.046842 0.064410 0.181256 153 76 0
-0.251684 0.475840 0.167939 0 255 0
0.098834 0.213580 0.142879 153 76 0
-0.046511 0.086956 0.241294 76 0 153
0.155500 -0.485758 0.649895 76 153 0
-0.098533 0.003776 -0.472723 76 0 153
0.223972 -0.121326 -0.058438 76 0 153
-0.070466 0.190947 0.159660 153 76 0
0.174694 -0.435190 0.555027 76 153 0
-0.088345 -0.000999 -0.661295 0 127 127
-0.094931 -0.006053 -0.534146 0 127 127
0.470771 0.443399 0.096708 0 255 0
0.082703 0.036947 -0.709295 76 0 153
0.231736 -0.171380 -0.019876 76 0 153
-0.169142 0.042299 0.075944 76 0 153
-0.017816 0.049287 0.221114 153 76 0
-0.053342 -0.341146 0.449160 0 127 127
-0.003623 -0.319600 -0.059472 0 127 127
0.100468 -0.006798 0.427503 0 127 127
0.042516 0.570810 0.080600 0 255 0
0.009920 0.013359 -0.195784 76 0 153
-0.148996 -0.005477 -0.125922 76 0 153
0.008290 0.160906 -0.027924 153 76 0
0.511072 0.438087 0.100951 0 255 0
-0.122418 -0.194491 -0.513403 76 0 153
0.011876 -0.283104 -0.472723 76 0 153
-0.063285 0.011255 -0.489426 0 127 127
0.111487 -0.281140 -0.769762 0 127 127
0.009040 0.471775 0.066838 0 255 0
0.110322 -0.282034 -0.306625 0 127 127
-0.092710 -0.252184 -0.920918 0 127 127
-0.068691 -0.303268 -0.249351 0 127 127
0.135412 -0.369062 0.757222 0 127 127
0.207242 -0.154803 -0.104227 76 0 153
0.108623 0.106684 0.030003 153 76 0
-0.018083 0.073038 -0.073348 76 0 153
-0.057989 0.138671 0.171173 153 76 0
0.427304 0.622245 0.185583 0 255 0
0.217523 -0.203653 -0.566371 76 0 153
0.632126 0.549447 0.241157 0 255 0
0.585991 0.635118 0.207973 0 255 0
0.154149 -0.061068 0.068822 0 127 127
-0.165900 -0.261433 0.631022 0 127 127
-0.190467 -0.113976 -0.709295 76 0 153
0.205537 -0.265403 0.066980 76 0 153
-0.167129 -0.227184 -0.138766 76 0 153
0.143338 -0.498743 0.595138 76 153 0
0.161727 -0.214889 -0.917427 0 127 127
0.056375 -0.015965 0.538804 0 127 127
-0.513486 0.656321 0.132143 0 255 0
0.143955 -0.557207 0.563015 76 153 0
-0.096232 -0.007051 -0.315738 0 127 127
0.191472 0.005819 -0.000023 76 0 153
0.066220 0.007225 0.449574 0 127 127
-0.061686 0.089598 0.014664 76 0 153
-0.389955 0.579681 0.214911 0 255 0
-0.157221 -0.276166 -0.472723 76 0 153
0.151088 -0.056776 -0.284137 0 127 127
0.107292 -0.009894 -0.841197 0 127 127
-0.180808 -0.003632 -0.515066 76 0 153
-0.094770 -0.070584 0.594453 0 127 127
-0.526844 0.624965 0.210591 0 255 0
0.060716 0.504454 0.113159 0 255 0
0.672765 0.444635 0.130526 0 255 0
0.125582 -0.023928 -0.184011 0 127 127
0.511878 0.651646 0.106943 0 255 0
-0.149141 0.014651 -0.687550 76 0 153
0.038155 0.021770 0.189085 0 127 127
-0.168602 -0.155899 -0.811006 0 127 127
-0.127169 -0.335881 0.751304 0 127 127
-0.054708 0.042041 0.366849 76 0 153
-0.109313 0.190947 0.064716 153 76 0
-0.009066 0.103672 0.100702 76 0 153
-0.001163 0.106077 -0.028546 153 76 0
-0.186008 -0.152698 0.382321 76 0 153
0.128790 -0.266537 -0.766973 0 127 127
-0.138407 -0.244419 -0.771662 0 127 127
0.510212 0.456365 0.059844 0 255 0
0.173021 -0.116053 -0.081732 0 127 127
-0.107872 -0.278270 -0.128349 0 127 127
-0.054229 -0.052412 0.604847 0 127 127
-0.178820 -0.300641 0.079057 76 0 153
-0.011247 -0.505654 0.457194 76 153 0
-0.114647 0.063055 0.254004 76 0 153
-0.080694 -0.018719 -0.920918 0 127 127
-0.130587 -0.254610 0.137002 0 127 127
0.047148 -0.314838 0.055075 0 127 127
-0.142917 -0.257245 -0.472723 76 0 153
0.120461 -0.306298 0.299622 76 0 153
-0.155623 -0.078844 -0.709295 76 0 153
-0.099677 0.566713 0.185310 0 255 0
0.141334 0.058403 0.191683 76 0 153
0.055166 0.247642 0.063596 153 76 0
0.016235 0.024655 -0.611423 0 127 127
-0.169225 -0.151168 0.077781 0 127 127
-0.075029 -0.323611 -0.095226 76 0 153
-0.385154 0.557834 0.028215 0 255 0
-0.035691 -0.512425 0.505113 76 153 0
-0.165805 -0.123693 0.437178 0 127 127
-0.101355 0.042240 -0.609969 76 0 153
-0.165210 -0.211639 0.486981 0 127 127
-0.150203 0.043409 -0.007664 76 0 153
-0.170214 -0.289731 -0.706950 76 0 153
-0.177310 -0.278317 -0.042189 76 0 153
0.403749 0.470787 0.059096 0 255 0
0.183451 -0.154681 0.376820 76 0 153
-0.105292 -0.467657 0.757743 76 153 0
-0.060859 -0.547873 0.836501 76 153 0
-0.123508 -0.316697 -0.639776 76 0 153
0.140366 -0.250692 -0.472723 76 0 153
-0.000550 -0.352795 0.263427 76 0 153
0.138416 -0.196107 -0.472723 76 0 153
0.157374 0.046397 0.169840 76 0 153
0.217523 -0.237782 -0.650483 76 0 153
0.130930 0.187713 0.164673 153 76 0
0.172192 -0.184498 -0.140717 0 127 127
0.051060 0.075807 -0.568436 76 0 153
-0.053539 -0.023814 0.553584 0 127 127
-0.213184 -0.103872 0.327287 76 0 153
0.160796 -0.077115 -0.100866 0 127 127
-0.618203 0.445744 0.059432 0 255 0
0.553421 0.443016 0.183737 0 255 0
-0.070837 -0.268244 -0.196466 76 0 153
0.148054 -0.489232 0.784402 76 153 0
-0.082171 0.040387 -0.709295 76 0 153
0.102582 -0.179546 0.461701 76 0 153
0.089195 0.053789 -0.629032 76 0 153
-0.227601 0.502611 0.056326 0 255 0
-0.381022 0.616761 0.059896 0 255 0
0.095194 -0.035547 -0.207588 76 0 153
0.175221 -0.218093 0.532891 0 127 127
-0.137950 0.035512 -0.061147 76 0 153
-0.180599 0.525837 0.195096 0 255 0
-0.141816 -0.239976 -0.593101 0 127 127
0.061937 0.166428 0.003049 153 76 0
0.145089 -0.245296 -0.174655 0 127 127
-0.114939 -0.206162 -0.219652 76 0 153
0.097369 0.049287 0.150350 153 76 0
-0.160970 -0.198960 -0.792767 0 127 127
0.196151 -0.007962 -0.533729 76 0 153
0.066167 0.102358 0.180745 153 76 0
0.037199 0.117255 0.206950 153 76 0
0.190479 -0.197900 0.349838 76 0 153
-0.159190 -0.090995 -0.524144 0 127 127
0.123361 -0.076094 -0.540805 76 0 153
0.137677 -0.116211 -0.514486 76 0 153
-0.030416 -0.462217 0.799650 76 153 0
-0.596182 0.659117 0.172464 0 255 0
0.205589 -0.007459 0.192962 76 0 153
0.172190 -0.425958 0.660006 76 153 0
0.041148 0.205752 0.037627 153 76 0
0.173132 -0.177356 -0.256785 0 127 127
0.085667 -0.199971 0.737796 0 127 127
0.156613 -0.227236 -0.180261 0 127 127
-0.124671 -0.262318 -0.818721 0 127 127
-0.079029 -0.032115 0.545857 0 127 127
-0.120288 -0.268032 -0.026450 0 127 127
-0.139964 -0.049847 0.356811 0 127 127
0.140292 -0.151174 -0.586174 76 0 153
0.179875 -0.084360 -0.472723 76 0 153
-0.049754 -0.359279 -0.590327 76 0 153
0.046608 -0.314909 0.177197 0 127 127
-0.042943 0.649031 0.065255 0 255 0
-0.029311 -0.316218 -0.324872 0 127 127
-0.016884 -0.485601 0.502637 76 153 0
-0.134448 -0.315501 0.735991 0 127 127
0.199933 -0.010146 -0.564020 76 0 153
0.542062 0.599468 0.016698 0 255 0
-0.125781 -0.260873 -0.890507 0 127 127
0.246192 -0.130032 0.194603 76 0 153
-0.142460 -0.172742 -0.709295 76 0 153
-0.037763 -0.528037 0.460685 76 153 0
-0.544896 0.633367 0.042904 0 255 0
-0.069139 0.204833 0.178224 153 76 0
0.179381 0.030130 0.102665 76 0 153
-0.076858 0.225242 0.160003 153 76 0
-0.138821 -0.243878 -0.238146 0 127 127
-0.191847 -0.060259 -0.124296 76 0 153
0.175636 -0.321693 0.641082 0 127 127
0.098784 -0.546345 0.823838 76 153 0
0.077719 -0.246577 -0.920918 0 127 127
-0.099631 -0.347542 0.779907 0 127 127
-0.112711 -0.019696 -0.296236 0 127 127
-0.157137 -0.130832 0.538325 0 127 127
-0.049973 0.170249 0.213523 153 76 0
-0.073327 0.047484 -0.472723 76 0 153
-0.168510 -0.271650 0.312356 76 0 153
0.506622 0.622359 0.200936 0 255 0
-0.034936 0.510423 0.009279 0 255 0
0.031065 -0.321184 0.807361 0 127 127
-0.509833 0.482053 0.214927 0 255 0
-0.092847 -0.004454 -0.362501 0 127 127
0.389797 0.617077 0.060946 0 255 0
0.111561 -0.013170 0.220501 0 127 127
0.138881 -0.253386 -0.705680 0 127 127
0.090758 -0.297046 -0.556135 0 127 127
0.112618 -0.262122 -0.164711 76 0 153
-0.061028 -0.352770 -0.641189 76 0 153
-0.169666 -0.147816 -0.280952 0 127 127
-0.034306 0.454843 0.085497 0 255 0
0.149329 -0.157388 0.626338 0 127 127
0.038781 0.599927 0.076501 0 255 0
-0.029779 0.021904 -0.428453 0 127 127
0.094851 -0.055009 -0.920918 0 127 127
0.119606 -0.018362 0.333339 0 127 127
-0.086680 -0.192218 0.726730 0 127 127
0.001181 -0.176058 0.746751 0 127 127
-0.109600 -0.276944 0.283117 0 127 127
-0.048947 0.576097 0.132791 0 255 0
0.496479 0.440291 0.148915 0 255 0
0.174977 -0.130912 -0.747301 0 127 127
0.176801 -0.149490 -0.824148 0 127 127
-0.135085 -0.310013 -0.665311 76 0 153
-0.013654 -0.318279 -0.420148 0 127 127
-0.209679 -0.168963 -0.534873 76 0 153
-0.168319 0.003578 -0.562310 76 0 153
0.010118 -0.280172 -0.550503 76 0 153
0.006575 0.684233 0.078481 0 255 0
-0.040720 -0.292669 -0.168935 76 0 153
-0.035896 0.079835 0.075948 153 76 0
0.345812 0.479727 0.189234 0 255 0
-0.042918 0.019691 -0.131148 0 127 127
-0.027798 0.084708 -0.574914 76 0 153
0.129190 0.066388 0.166060 76 0 153
0.195744 -0.542737 0.616039 76 153 0
0.104642 -0.142135 0.471096 76 0 153
-0.155317 -0.081646 -0.454088 0 127 127
-0.140070 -0.078421 -0.204917 76 0 153
-0.241226 -0.079122 0.015803 76 0 153
0.098915 -0.425958 0.531514 76 153 0
-0.151790 -0.408762 0.724154 0 127 127
0.065975 0.080985 0.238433 76 0 153
-0.382515 0.635385 0.090738 0 255 0
0.071945 0.010715 -0.067449 0 127 127
0.025350 -0.453092 0.845987 76 153 0
-0.120856 -0.026962 -0.316545 0 127 127
-0.168401 -0.286135 0.599661 0 127 127
-0.420763 0.519047 0.026569 0 255 0
-0.155621 -0.082380 -0.817802 0 127 127
-0.236722 0.602928 0.179506 0 255 0
0.466531 0.605672 0.207061 0 255 0
0.030212 0.499303 0.231419 0 255 0
-0.656781 0.582704 0.222665 0 255 0
0.200001 -0.010184 -0.613565 76 0 153
0.217523 -0.185867 -0.699742 76 0 153
0.094181 0.000167 -0.710724 0 127 127
-0.252024 -0.152129 0.167082 76 0 153
-0.180842 -0.207427 0.369913 76 0 153
0.045540 -0.352626 -0.013652 76 0 153
0.160872 -0.216953 -0.712824 0 127 127
-0.209679 -0.190159 -0.584811 76 0 153
-0.077554 0.061945 -0.079186 76 0 153
0.004418 0.061390 0.342574 76 0 153
-0.288851 0.567752 0.040864 0 255 0
-0.017315 0.093602 0.234450 76 0 153
0.114474 -0.237162 -0.472723 76 0 153
0.089474 -0.297706 0.316948 0 127 127
0.148947 -0.134508 0.600548 0 127 127
0.581058 0.463463 0.028730 0 255 0
0.049853 0.261511 0.148894 153 76 0
0.025993 -0.149372 -0.920918 0 127 127
0.179185 0.022685 0.022251 76 0 153
0.613624 0.600764 0.229652 0 255 0
0.197509 -0.264932 -0.709295 76 0 153
0.097210 -0.505421 0.770347 76 153 0
