ply
format ascii 1.0
element vertex 1274
property float x
property float y
property float z
property uchar red
property uchar green
property uchar blue
end_header
-0.207044 0.000605 0.190304 76 0 153
0.059011 0.071216 -0.562021 76 0 153
-0.147855 -0.522227 0.647698 76 153 0
0.647347 0.492502 0.022124 0 255 0
0.138788 -0.040745 -0.430152 0 127 127
0.239967 -0.129425 -0.014303 76 0 153
-0.001491 -0.006972 -0.493522 76 0 153
0.216086 0.531124 0.198769 0 255 0
-0.094361 0.503059 0.061711 0 255 0
-0.167598 -0.230306 0.545146 0 127 127
-0.148588 -0.065399 0.053438 0 127 127
0.193332 -0.006334 -0.660371 76 0 153
-0.169657 -0.147884 -0.903772 0 127 127
0.248412 -0.159606 0.094055 76 0 153
-0.013051 0.508131 0.174966 0 255 0
0.101287 -0.090442 0.623158 0 127 127
0.143115 -0.012620 -0.134862 76 0 153
-0.080238 -0.275532 -0.180574 76 0 153
0.118712 0.516496 0.184105 0 255 0
-0.065354 0.190947 0.163506 153 76 0
0.060716 0.586572 0.128659 0 255 0
-0.167838 -0.223796 0.370580 76 0 153
-0.025484 -0.316722 -0.067612 0 127 127
0.129207 0.562770 0.135560 0 255 0
0.029612 -0.336311 0.310313 76 0 153
-0.207171 -0.268395 -0.551137 76 0 153
0.044073 -0.322304 0.345840 0 127 127
0.173788 -0.300427 0.647646 0 127 127
-0.048425 0.171778 0.234715 153 76 0
0.087412 -0.298561 -0.464073 0 127 127
0.176624 -0.425958 0.717613 76 153 0
-0.073796 -0.255652 -0.617756 76 0 153
0.049643 -0.314205 -0.199488 0 127 127
0.009987 0.176744 0.023123 153 76 0
-0.013568 0.434511 0.079652 0 255 0
-0.149047 -0.155031 0.606647 0 127 127
-0.209679 -0.247871 -0.654575 76 0 153
0.149666 -0.165624 -0.196431 76 0 153
-0.066247 0.062510 -0.627893 76 0 153
-0.478334 0.437502 0.115588 0 255 0
0.023424 -0.008827 -0.643844 76 0 153
0.039523 -0.343295 0.442490 0 127 127
0.039548 0.082453 -0.513851 76 0 153
-0.168614 -0.232839 0.582645 0 127 127
-0.121396 -0.090287 -0.677616 76 0 153
0.017730 -0.350246 0.445346 0 127 127
0.112207 -0.280588 -0.123485 76 0 153
-0.295613 0.565019 0.039571 0 255 0
0.071561 0.196393 0.189829 153 76 0
0.048575 0.020394 -0.495631 0 127 127
0.179858 -0.290893 0.187763 76 0 153
-0.043439 -0.271417 -0.636945 76 0 153
-0.184539 -0.197584 -0.139067 76 0 153
-0.636186 0.657207 0.140460 0 255 0
-0.111468 -0.017330 0.342789 0 127 127
0.172457 -0.279128 0.647707 0 127 127
-0.216772 -0.051083 -0.045849 76 0 153
0.139311 -0.225328 -0.472723 76 0 153
0.152513 0.017233 -0.655393 76 0 153
0.159691 -0.074447 -0.905731 0 127 127
0.173850 -0.264744 0.627852 0 127 127
0.102943 0.079925 0.086707 76 0 153
0.126717 -0.334510 0.496865 0 127 127
-0.084682 -0.334565 -0.051039 76 0 153
-0.189634 -0.123092 0.379940 76 0 153
0.083719 0.130017 0.171479 153 76 0
0.018186 -0.279110 -0.530704 76 0 153
0.167118 -0.092378 -0.032792 0 127 127
0.536452 0.526549 0.234838 0 255 0
0.080148 0.007316 -0.795771 0 127 127
-0.138123 0.049378 -0.022735 76 0 153
0.086740 0.629438 0.069295 0 255 0
0.131600 -0.407311 0.533749 0 127 127
0.030282 0.458967 0.173192 0 255 0
-0.027646 -0.162946 -0.920918 0 127 127
0.176053 0.034251 0.115182 76 0 153
-0.049228 0.017077 -0.086366 0 127 127
0.101582 0.596874 0.087117 0 255 0
-0.226235 0.606583 0.074957 0 255 0
-0.209679 -0.086250 -0.496270 76 0 153
-0.096972 -0.286634 0.251012 0 127 127
0.173047 -0.178000 0.055386 0 127 127
-0.014637 0.430420 0.144285 0 255 0
-0.048596 -0.071664 0.487566 76 0 153
0.138342 -0.254088 -0.331695 0 127 127
0.130930 0.082468 0.104471 76 0 153
-0.169074 -0.152313 0.270321 0 127 127
0.045147 0.593755 0.010601 0 255 0
0.051604 0.124187 0.182245 153 76 0
-0.153814 -0.078017 -0.766057 0 127 127
-0.135411 -0.000323 -0.472723 76 0 153
0.187550 -0.280605 0.214295 76 0 153
0.080046 0.631023 0.183190 0 255 0
-0.097962 0.049287 0.142954 153 76 0
0.159925 -0.219240 -0.442816 0 127 127
0.157771 -0.224442 -0.755946 0 127 127
-0.053072 -0.309738 -0.628158 0 127 127
-0.119237 -0.202173 -0.522461 76 0 153
-0.235981 -0.042451 0.090150 76 0 153
-0.112779 -0.019748 0.094393 0 127 127
-0.038109 0.002954 -0.204493 76 0 153
0.171302 -0.102997 -0.622621 0 127 127
0.427523 0.472477 0.195008 0 255 0
0.588304 0.522676 -0.001265 0 255 0
0.164559 -0.307886 0.071013 76 0 153
0.104831 0.091554 0.205642 153 76 0
0.131256 -0.030929 -0.677937 0 127 127
-0.024965 0.086344 -0.607080 76 0 153
0.132215 -0.231171 -0.709295 76 0 153
-0.711417 0.567861 0.088284 0 255 0
0.135255 -0.122859 0.446244 76 0 153
0.108815 -0.166732 0.460540 76 0 153
0.153799 -0.060309 -0.545160 0 127 127
0.135685 0.604800 0.154618 0 255 0
0.126217 -0.336500 0.130780 76 0 153
0.082604 0.006299 -0.381952 0 127 127
-0.600094 0.490565 0.234012 0 255 0
-0.002482 -0.409266 0.823060 0 127 127
0.566511 0.425378 0.103670 0 255 0
0.175955 -0.155917 0.017766 0 127 127
0.101562 0.002091 -0.166853 76 0 153
0.175697 -0.155450 0.372309 76 0 153
0.087630 -0.508130 0.828459 76 153 0
-0.146510 0.062235 0.137569 76 0 153
-0.151583 0.611125 0.097485 0 255 0
0.016986 -0.318809 -0.281779 0 127 127
0.081784 -0.300892 0.304602 0 127 127
-0.155041 -0.080980 0.248237 0 127 127
0.550269 0.429826 0.152837 0 255 0
-0.043610 -0.271346 -0.614959 76 0 153
0.152379 -0.553930 0.677885 76 153 0
0.083829 -0.216053 0.747277 0 127 127
0.155793 -0.065036 -0.267929 0 127 127
-0.209679 -0.084364 -0.652306 76 0 153
0.176494 -0.151817 -0.808909 0 127 127
0.121825 0.497175 0.171602 0 255 0
-0.165019 0.005484 -0.663812 76 0 153
0.082662 -0.300528 -0.380813 0 127 127
-0.139511 -0.242979 -0.138141 0 127 127
-0.132498 -0.136446 -0.539745 76 0 153
0.233345 0.619687 0.145415 0 255 0
-0.157644 -0.206990 -0.140193 0 127 127
0.101828 0.076287 0.040382 76 0 153
0.066089 -0.526398 0.789411 76 153 0
-0.673704 0.458297 0.152986 0 255 0
0.197099 0.471477 0.138844 0 255 0
-0.090864 0.482787 0.103878 0 255 0
-0.031135 -0.315978 -0.908110 0 127 127
-0.167196 -0.166577 -0.318854 0 127 127
0.193951 -0.213987 -0.101968 76 0 153
0.461521 0.606106 0.040806 0 255 0
0.047350 -0.091101 -0.262790 76 0 153
0.006727 0.090715 0.039883 153 76 0
0.132125 -0.032063 -0.767940 0 127 127
0.035630 0.622382 0.171454 0 255 0
0.111851 0.034199 -0.096071 76 0 153
0.217523 -0.186271 -0.489989 76 0 153
0.032802 0.529256 0.074558 0 255 0
0.084735 0.005417 -0.581224 0 127 127
-0.076618 -0.314262 0.788525 0 127 127
-0.172651 -0.288325 -0.493176 76 0 153
-0.023069 -0.297887 -0.920918 0 127 127
-0.033889 -0.368439 -0.473591 76 0 153
0.128238 0.525373 0.115608 0 255 0
-0.125157 -0.187879 -0.485975 76 0 153
-0.088745 -0.010189 0.460465 0 127 127
0.224628 -0.221683 0.018304 76 0 153
-0.616470 0.450954 0.199639 0 255 0
0.638199 0.649982 0.173864 0 255 0
-0.071951 -0.301918 -0.871453 0 127 127
0.138750 -0.124357 -0.568182 76 0 153
0.039454 -0.363907 0.172606 76 0 153
-0.454151 0.635360 0.173521 0 255 0
-0.011313 -0.445921 0.846866 76 153 0
0.056624 0.611426 0.216689 0 255 0
-0.113016 0.480124 0.104920 0 255 0
0.110016 -0.216889 0.438532 76 0 153
0.034712 -0.141655 0.503879 76 0 153
-0.049018 -0.363999 0.164267 76 0 153
0.019521 0.064129 -0.472723 76 0 153
0.166445 -0.203500 -0.531926 0 127 127
-0.051080 -0.524507 0.840551 76 153 0
0.162532 -0.117375 -0.920918 0 127 127
-0.011251 -0.278990 -0.651880 76 0 153
-0.095657 -0.237565 -0.588332 76 0 153
-0.095340 -0.365888 0.494383 0 127 127
-0.017875 0.043384 -0.709295 76 0 153
-0.145544 -0.059136 -0.149096 0 127 127
-0.246964 0.516171 0.046408 0 255 0
-0.192922 0.016779 0.038937 76 0 153
-0.181363 -0.293298 0.202668 76 0 153
0.044514 -0.315185 -0.087287 0 127 127
0.000652 -0.024200 0.577262 0 127 127
0.012060 -0.270642 0.437814 76 0 153
-0.022845 0.022816 -0.599839 0 127 127
-0.018829 0.413987 0.173089 0 255 0
0.168447 -0.109668 0.469116 0 127 127
-0.038724 -0.517839 0.797699 76 153 0
0.058374 0.326920 0.102426 0 255 0
-0.147500 -0.062773 -0.625749 0 127 127
-0.051561 -0.363505 0.060982 76 0 153
-0.000233 0.025793 0.042714 0 127 127
-0.147133 -0.061887 0.301596 0 127 127
0.217523 -0.043031 -0.492574 76 0 153
0.125490 -0.023857 -0.437788 0 127 127
0.134556 -0.032716 0.377187 0 127 127
-0.026090 0.282857 0.076201 0 255 0
0.102351 -0.006102 -0.478342 0 127 127
0.013881 0.129928 0.197553 153 76 0
-0.638535 0.434980 0.137270 0 255 0
-0.065319 -0.155352 0.494082 76 0 153
0.009757 -0.386900 -0.582720 76 0 153
0.095977 -0.337121 -0.661559 76 0 153
0.111462 -0.539217 0.759287 76 153 0
-0.124879 0.110219 0.187295 153 76 0
-0.077871 0.175068 0.127043 153 76 0
0.057226 0.671946 0.110871 0 255 0
0.167402 -0.201190 -0.695071 0 127 127
-0.134486 -0.044726 -0.052027 0 127 127
-0.095133 0.045832 -0.497564 76 0 153
0.581147 0.639490 0.040024 0 255 0
-0.486267 0.652095 0.116921 0 255 0
0.009022 0.025604 -0.656054 0 127 127
0.144981 -0.048816 -0.659533 0 127 127
-0.048419 -0.365119 0.140262 76 0 153
-0.209679 -0.266495 -0.707770 76 0 153
0.189913 -0.528109 0.591768 76 153 0
0.079640 -0.337372 0.266087 76 0 153
0.113026 0.049287 0.094692 153 76 0
-0.060381 -0.306710 0.126964 0 127 127
-0.168140 -0.183336 0.531463 0 127 127
0.052024 0.308940 0.093687 0 255 0
-0.234890 -0.181861 -0.021339 76 0 153
-0.221658 -0.024720 0.183590 76 0 153
-0.694875 0.503196 0.183947 0 255 0
0.207525 0.601056 0.174281 0 255 0
0.024910 -0.557207 0.830941 76 153 0
-0.124879 0.093807 0.047873 153 76 0
0.081234 -0.288979 0.781164 0 127 127
-0.087058 0.190947 0.053561 153 76 0
-0.081140 0.049287 0.130018 153 76 0
0.161342 0.042062 0.176843 76 0 153
0.136729 -0.180097 0.434482 76 0 153
0.097263 0.592505 0.165499 0 255 0
0.160412 -0.076188 0.298620 0 127 127
-0.165753 -0.116717 -0.865962 0 127 127
-0.117629 -0.285923 0.747733 0 127 127
-0.553720 0.668410 0.122372 0 255 0
0.170995 -0.192515 -0.850026 0 127 127
0.072066 0.012970 0.381563 0 127 127
0.163080 -0.082629 0.234234 0 127 127
0.136660 -0.256280 0.088375 0 127 127
0.089358 0.053695 -0.662374 76 0 153
0.014022 0.030385 -0.709295 76 0 153
-0.114454 -0.021034 -0.373262 0 127 127
-0.155323 -0.128845 0.543693 0 127 127
-0.245833 -0.154498 0.223894 76 0 153
-0.132222 -0.152893 -0.497635 76 0 153
0.204852 -0.188808 -0.091849 76 0 153
0.065884 -0.355541 0.025006 76 0 153
-0.155757 -0.298078 -0.708902 76 0 153
-0.050681 -0.310728 0.197772 0 127 127
0.251943 -0.145575 0.123704 76 0 153
-0.049368 0.499424 0.219741 0 255 0
0.171686 -0.268830 -0.709295 76 0 153
-0.101221 -0.056932 -0.661198 76 0 153
-0.169114 -0.297158 0.622784 0 127 127
-0.187158 -0.053693 0.353051 76 0 153
0.469382 0.624439 0.056389 0 255 0
0.083746 -0.048201 0.578851 0 127 127
-0.083953 -0.339535 -0.538942 76 0 153
0.080436 -0.086388 0.478932 76 0 153
-0.117036 -0.247949 0.407971 0 127 127
0.723710 0.516143 0.091124 0 255 0
0.172438 -0.111019 0.327238 0 127 127
0.023015 -0.168234 0.738267 0 127 127
-0.164935 -0.110502 -0.772631 0 127 127
-0.122034 -0.482155 0.801518 76 153 0
0.060008 0.070641 -0.689635 76 0 153
0.029237 -0.029152 0.461624 76 0 153
-0.156429 -0.156716 0.426828 76 0 153
-0.116384 -0.271739 -0.694444 0 127 127
-0.165106 -0.111804 -0.837781 0 127 127
0.095151 0.136611 0.146967 153 76 0
0.011571 0.087999 0.253140 76 0 153
0.142033 0.548816 0.192253 0 255 0
0.173408 -0.118994 0.008122 0 127 127
0.011515 0.093588 -0.005791 76 0 153
-0.054195 -0.330536 0.320798 76 0 153
-0.050978 0.049287 0.194612 153 76 0
-0.070239 -0.439477 0.832615 76 153 0
-0.040988 -0.276233 -0.196463 76 0 153
0.161636 0.039167 0.199975 76 0 153
0.035155 0.584153 0.237711 0 255 0
-0.068974 -0.269257 0.776098 0 127 127
-0.172289 -0.309419 0.120883 76 0 153
-0.071309 -0.302184 -0.366720 0 127 127
-0.035902 0.109193 0.188873 153 76 0
-0.148501 -0.229063 -0.839388 0 127 127
-0.005233 0.065870 0.328996 76 0 153
-0.152385 0.012778 -0.626106 76 0 153
-0.045129 0.344973 0.100394 0 255 0
0.168171 -0.199333 0.122651 0 127 127
-0.171752 0.023633 0.242989 76 0 153
0.090473 0.063303 0.281714 76 0 153
0.051639 0.141485 0.236353 153 76 0
-0.091460 -0.003390 -0.573032 0 127 127
-0.008926 0.095604 -0.700453 76 0 153
-0.100630 -0.349070 0.060927 76 0 153
-0.151563 -0.072583 -0.569662 0 127 127
0.095097 -0.000536 0.306929 0 127 127
-0.078192 -0.299333 0.020212 0 127 127
-0.043407 0.536651 0.234260 0 255 0
-0.163842 -0.102226 -0.453348 0 127 127
0.168155 -0.295449 -0.526339 76 0 153
0.170357 -0.194055 -0.174951 0 127 127
-0.231159 -0.038363 0.064880 76 0 153
0.175274 -0.133163 -0.018845 0 127 127
-0.051383 0.467555 0.048836 0 255 0
-0.083879 -0.039333 -0.521578 76 0 153
-0.090976 0.072482 0.247425 76 0 153
0.160844 -0.002905 -0.709295 76 0 153
-0.099766 -0.136468 0.481084 76 0 153
0.058545 -0.363264 0.113757 76 0 153
-0.000915 -0.467559 0.848235 76 153 0
-0.016179 0.072441 0.196454 153 76 0
-0.209679 -0.125834 -0.546379 76 0 153
-0.005793 -0.319314 -0.320543 0 127 127
-0.659875 0.497480 0.215292 0 255 0
-0.033757 -0.557207 0.826844 76 153 0
0.188940 -0.097465 -0.133896 76 0 153
0.173986 -0.170868 -0.428641 0 127 127
-0.067880 -0.303604 -0.264118 0 127 127
-0.222772 -0.150046 0.305596 76 0 153
-0.314239 0.499334 0.047186 0 255 0
-0.009284 -0.066373 -0.920918 0 127 127
0.201405 -0.228539 0.281000 76 0 153
0.164124 0.473203 0.117779 0 255 0
0.029926 0.022852 -0.457562 0 127 127
0.078056 0.596417 0.030546 0 255 0
-0.019784 0.475623 0.024840 0 255 0
0.024097 -0.110331 -0.273631 76 0 153
-0.154957 -0.321660 0.067557 76 0 153
-0.166856 -0.557207 0.614243 76 153 0
-0.241495 -0.052234 0.137412 76 0 153
0.053141 0.540511 0.095223 0 255 0
-0.703360 0.593082 0.158300 0 255 0
0.037850 -0.316062 -0.905310 0 127 127
0.173916 -0.171403 -0.021623 0 127 127
0.094827 0.210397 0.164270 153 76 0
0.103462 -0.049631 -0.697251 76 0 153
-0.104668 -0.013525 -0.920463 0 127 127
-0.054370 -0.557207 0.809289 76 153 0
-0.115851 -0.494023 0.560086 76 153 0
0.006190 -0.320230 -0.596311 0 127 127
0.136676 -0.256259 -0.109457 0 127 127
-0.576883 0.423146 0.102567 0 255 0
-0.109736 0.507800 0.099596 0 255 0
-0.125757 -0.260903 -0.545100 0 127 127
-0.360544 0.556025 0.030583 0 255 0
0.001260 0.025990 -0.203567 0 127 127
0.022693 -0.102728 0.682384 0 127 127
-0.026016 -0.204291 0.490750 76 0 153
0.348491 0.455835 0.144583 0 255 0
0.064862 -0.307901 -0.617748 0 127 127
-0.081380 0.549484 0.060230 0 255 0
-0.105663 -0.029370 -0.472723 76 0 153
-0.048635 -0.311576 0.237520 0 127 127
0.023307 -0.132373 -0.279687 76 0 153
-0.231198 -0.076453 -0.027577 76 0 153
-0.094709 -0.288370 -0.805066 0 127 127
-0.209679 -0.172775 -0.498031 76 0 153
-0.038547 -0.439944 0.797772 76 153 0
0.119616 0.021042 0.343715 76 0 153
-0.571307 0.463336 0.032711 0 255 0
-0.164348 -0.106045 0.052151 0 127 127
0.045701 0.560861 0.161947 0 255 0
-0.121196 -0.197860 -0.217141 76 0 153
0.136571 -0.074336 0.430899 76 0 153
0.042431 -0.368036 -0.497176 76 0 153
-0.023404 0.102057 0.103365 76 0 153
-0.380282 0.635422 0.092171 0 255 0
-0.139980 -0.051885 -0.598963 0 127 127
-0.025622 0.183683 0.222912 153 76 0
0.170743 0.518398 0.191211 0 255 0
-0.075111 -0.012446 0.500467 0 127 127
0.021499 0.689308 0.087097 0 255 0
-0.041095 -0.295616 0.392762 76 0 153
-0.158719 -0.296368 -0.568915 76 0 153
0.140437 -0.042894 0.205121 0 127 127
0.126534 -0.553426 0.564424 76 153 0
-0.126131 -0.185527 -0.606187 76 0 153
-0.134662 -0.044954 -0.109766 0 127 127
0.465569 0.445471 0.157731 0 255 0
-0.169148 -0.142506 -0.285076 0 127 127
-0.162174 -0.098199 -0.800298 0 127 127
-0.101406 -0.478275 0.761484 76 153 0
0.144472 -0.339237 0.527510 0 127 127
-0.133178 -0.251233 -0.227657 0 127 127
0.031965 -0.080355 0.655707 0 127 127
-0.264290 0.460840 0.129381 0 255 0
0.060716 0.350316 0.135948 0 255 0
-0.141285 -0.053586 -0.547255 0 127 127
0.091985 -0.296105 -0.016851 0 127 127
0.129276 0.553213 0.056959 0 255 0
0.173818 -0.122106 -0.268932 0 127 127
0.438405 0.444064 0.135516 0 255 0
0.110897 0.190947 0.131046 153 76 0
0.145584 -0.372764 0.744457 0 127 127
0.014719 0.417660 0.068682 0 255 0
0.040481 -0.288781 0.403003 76 0 153
0.172296 -0.183708 -0.118152 0 127 127
-0.139202 -0.428781 0.747876 76 153 0
0.146997 -0.533780 0.700097 76 153 0
0.133503 -0.260395 0.127796 0 127 127
-0.593321 0.522165 0.245993 0 255 0
0.103335 -0.501173 0.538421 76 153 0
0.121183 -0.042273 -0.193373 0 127 127
0.091653 0.002107 -0.302991 0 127 127
0.173174 -0.243253 0.538889 0 127 127
0.092284 0.084546 0.150665 76 0 153
-0.456205 0.462662 0.058696 0 255 0
0.000304 0.076897 -0.709295 76 0 153
0.176258 -0.153614 -0.662445 0 127 127
0.242848 0.584664 0.055075 0 255 0
-0.111613 -0.030675 0.423278 0 127 127
-0.133854 0.068757 0.102708 76 0 153
-0.099322 -0.284831 -0.012187 0 127 127
0.140268 0.476035 0.130084 0 255 0
0.082651 -0.300532 0.175903 0 127 127
-0.051253 0.539968 0.011989 0 255 0
-0.048373 0.068176 -0.001289 153 76 0
0.081722 -0.046067 0.457104 76 0 153
0.180010 0.485562 0.166151 0 255 0
0.175280 -0.173645 0.518181 0 127 127
-0.650510 0.648283 0.094843 0 255 0
-0.173779 -0.513206 0.733492 76 153 0
0.091772 0.553985 0.061270 0 255 0
-0.046055 -0.312644 -0.062458 0 127 127
0.233032 -0.203934 0.211407 76 0 153
0.059146 0.391054 0.143442 0 255 0
0.081525 0.575469 0.070028 0 255 0
-0.153946 0.011877 -0.500268 76 0 153
-0.162437 -0.195419 -0.209362 0 127 127
-0.163318 -0.293713 -0.593233 76 0 153
-0.196873 0.573804 0.052300 0 255 0
0.093967 0.495713 0.052048 0 255 0
-0.198850 -0.052155 0.331411 76 0 153
-0.167714 -0.134835 0.417405 0 127 127
0.178065 0.013842 -0.013462 76 0 153
0.509814 0.439541 0.094345 0 255 0
-0.140187 -0.333006 0.121466 76 0 153
0.122549 -0.241075 0.405667 76 0 153
-0.183912 0.583532 0.186444 0 255 0
0.170308 -0.100078 -0.105045 0 127 127
-0.117324 -0.052946 -0.920918 0 127 127
0.200148 -0.210917 0.317633 76 0 153
0.035362 0.022137 -0.023740 0 127 127
0.088105 0.050455 -0.091843 76 0 153
-0.573422 0.431407 0.174814 0 255 0
0.008135 0.046823 -0.140041 76 0 153
0.044018 0.444859 0.177002 0 255 0
0.091712 -0.039325 -0.578705 76 0 153
0.109907 -0.344409 0.102486 76 0 153
0.153298 -0.041274 -0.709295 76 0 153
0.186474 -0.471654 0.583466 76 153 0
-0.110374 -0.017903 -0.157534 0 127 127
0.368995 0.461647 0.079577 0 255 0
-0.024496 0.022599 -0.196171 0 127 127
-0.005511 0.666938 0.092824 0 255 0
0.035231 0.615700 0.222813 0 255 0
0.001966 0.147551 0.008527 153 76 0
0.007900 0.200091 0.233795 153 76 0
-0.022785 0.123519 0.039149 153 76 0
-0.039043 0.020684 -0.574271 0 127 127
0.162972 -0.260811 0.325179 76 0 153
-0.129865 -0.255549 0.307211 0 127 127
-0.086806 0.132938 0.132189 153 76 0
0.076323 -0.027516 -0.629855 76 0 153
0.024741 0.602207 0.071939 0 255 0
-0.148452 -0.096333 -0.203556 76 0 153
0.206178 -0.130823 -0.118241 76 0 153
0.027521 0.490240 0.174089 0 255 0
0.113912 -0.223998 -0.580236 76 0 153
-0.105252 -0.260455 -0.920918 0 127 127
-0.604492 0.623084 0.031609 0 255 0
0.089655 -0.519090 0.527924 76 153 0
-0.675176 0.478701 0.184978 0 255 0
-0.029523 0.261511 0.151591 153 76 0
0.077921 -0.028742 -0.671620 76 0 153
-0.060214 0.447297 0.145289 0 255 0
-0.199883 -0.014645 -0.663938 76 0 153
-0.035987 -0.274503 -0.480569 76 0 153
0.006425 0.515511 0.242233 0 255 0
-0.379093 0.526072 0.029791 0 255 0
0.201270 -0.034836 0.274641 76 0 153
0.203384 -0.232360 -0.709295 76 0 153
-0.646297 0.452657 0.180357 0 255 0
0.170468 -0.100466 -0.269590 0 127 127
-0.035168 -0.315447 0.021071 0 127 127
0.217523 -0.068267 -0.559927 76 0 153
-0.097225 0.477516 0.122419 0 255 0
-0.025951 0.022407 -0.224500 0 127 127
0.128499 -0.266917 -0.806156 0 127 127
0.104845 -0.073231 0.455713 76 0 153
-0.371769 0.449144 0.116454 0 255 0
-0.049879 -0.157231 -0.920918 0 127 127
-0.142067 -0.054605 -0.872209 0 127 127
-0.090904 -0.291290 -0.547513 0 127 127
-0.093260 -0.557207 0.788464 76 153 0
-0.050143 0.070487 0.103151 153 76 0
0.293700 0.490982 0.056983 0 255 0
0.033645 0.059069 -0.113199 76 0 153
0.128674 0.587927 0.072186 0 255 0
0.650306 0.529129 0.231388 0 255 0
-0.004212 -0.295030 -0.472723 76 0 153
0.213329 -0.246390 0.040806 76 0 153
-0.190691 -0.472008 0.633529 76 153 0
-0.190916 -0.245176 0.299204 76 0 153
0.027818 -0.277842 -0.572841 76 0 153
-0.125900 0.034871 -0.081389 76 0 153
0.701202 0.609250 0.076028 0 255 0
-0.683783 0.622197 0.094890 0 255 0
-0.096403 -0.305185 0.341446 76 0 153
0.299205 0.508433 0.202320 0 255 0
0.176669 -0.363621 0.639330 0 127 127
0.075882 -0.217635 -0.920918 0 127 127
0.134327 -0.034932 -0.075127 0 127 127
-0.156848 -0.319509 0.165543 76 0 153
-0.450291 0.618417 0.197969 0 255 0
-0.109031 -0.454172 0.551198 76 153 0
-0.038213 -0.086513 -0.920918 0 127 127
-0.075055 -0.344672 -0.616368 76 0 153
0.026199 -0.129867 0.708216 0 127 127
-0.159106 -0.090794 0.181086 0 127 127
-0.125823 -0.557207 0.776642 76 153 0
0.045567 0.451243 0.084798 0 255 0
0.217523 -0.022654 -0.483653 76 0 153
0.217523 -0.151477 -0.693844 76 0 153
-0.158876 0.025581 -0.046307 76 0 153
0.029669 0.491909 0.227747 0 255 0
0.057398 -0.268883 -0.538365 76 0 153
-0.580413 0.602254 0.236447 0 255 0
0.061083 0.592455 0.088430 0 255 0
-0.198140 -0.284830 0.101173 76 0 153
0.027886 -0.305298 -0.472723 76 0 153
-0.078687 0.488689 0.153313 0 255 0
0.024882 -0.317769 0.278677 0 127 127
-0.223536 -0.186916 0.281936 76 0 153
0.019962 0.024466 0.317481 0 127 127
-0.189290 -0.554962 0.681180 76 153 0
0.118033 -0.276117 -0.387125 0 127 127
0.201496 -0.048259 -0.070067 76 0 153
0.095936 -0.293073 0.037830 0 127 127
-0.145859 -0.438138 0.671536 76 153 0
0.126664 -0.324485 0.239857 76 0 153
0.123863 -0.022609 -0.854791 0 127 127
-0.166696 -0.170372 -0.424761 0 127 127
-0.066628 0.009870 -0.675073 0 127 127
-0.242850 -0.071539 0.044478 76 0 153
0.060989 -0.267396 -0.507867 76 0 153
0.441362 0.489670 0.208373 0 255 0
-0.352134 0.456427 0.090782 0 255 0
0.217523 -0.167429 -0.561864 76 0 153
-0.128088 -0.512825 0.727990 76 153 0
0.607194 0.452449 0.200975 0 255 0
0.532692 0.560845 0.233829 0 255 0
-0.091663 -0.003545 0.197275 0 127 127
-0.039381 0.020639 0.295337 0 127 127
-0.009554 0.190947 0.206661 153 76 0
0.021830 0.699030 0.117844 0 255 0
0.021470 0.023966 -0.057834 0 127 127
-0.149179 -0.066826 -0.665673 0 127 127
-0.000197 -0.413326 0.476566 0 127 127
0.088837 0.003718 -0.109213 0 127 127
-0.148760 -0.229870 0.402547 0 127 127
0.172324 -0.110760 -0.490867 0 127 127
-0.090508 -0.002210 0.321317 0 127 127
-0.153548 -0.139295 0.568466 0 127 127
-0.065099 0.092111 0.071548 153 76 0
-0.078529 0.142585 0.217334 153 76 0
0.120750 -0.063841 -0.211476 76 0 153
-0.216624 -0.115393 -0.094585 76 0 153
-0.109237 -0.308743 0.762957 0 127 127
-0.061851 0.089849 0.139274 153 76 0
-0.208979 -0.168770 -0.709295 76 0 153
-0.147500 -0.557207 0.674660 76 153 0
-0.019968 -0.317448 -0.505197 0 127 127
-0.062659 0.049287 0.165337 153 76 0
-0.153096 -0.076283 0.153497 0 127 127
0.125468 -0.206066 -0.671806 76 0 153
-0.002247 -0.319781 -0.656271 0 127 127
0.000126 0.025840 -0.042714 0 127 127
-0.124879 0.190757 0.060671 153 76 0
0.006108 -0.320241 -0.024153 0 127 127
-0.147964 0.480920 0.091696 0 255 0
0.135885 -0.257290 -0.766964 0 127 127
-0.157276 -0.207877 -0.615340 0 127 127
-0.366522 0.490223 0.200503 0 255 0
0.021057 0.673854 0.121108 0 255 0
-0.216976 0.522891 0.048396 0 255 0
0.448790 0.592849 0.213309 0 255 0
0.130930 0.156094 0.189510 153 76 0
0.126859 -0.269053 -0.661515 0 127 127
0.096716 -0.023802 -0.195245 76 0 153
-0.209679 -0.064109 -0.702579 76 0 153
0.204961 -0.274238 0.117817 76 0 153
-0.145480 -0.436749 0.629654 76 153 0
-0.140122 0.060910 0.198986 76 0 153
0.054228 -0.361225 -0.642036 76 0 153
0.009140 0.100009 -0.519565 76 0 153
0.010251 0.011713 0.483824 0 127 127
0.587541 0.651574 0.054410 0 255 0
0.169137 -0.124475 0.502075 0 127 127
0.141470 -0.328512 0.081689 76 0 153
0.020241 0.653596 0.054861 0 255 0
-0.157135 -0.245793 0.658982 0 127 127
0.037656 -0.370793 -0.518335 76 0 153
0.005037 -0.320382 0.312642 0 127 127
0.031488 -0.557207 0.468626 76 153 0
-0.153512 -0.077287 -0.437003 0 127 127
-0.057263 0.010510 0.438728 0 127 127
-0.048436 0.530203 0.104945 0 255 0
-0.067335 0.009577 -0.548701 0 127 127
-0.004124 -0.198094 0.759764 0 127 127
-0.139657 -0.442280 0.604007 76 153 0
0.134663 -0.258883 -0.199029 0 127 127
0.140896 -0.043493 -0.568607 0 127 127
-0.210202 0.505667 0.190381 0 255 0
-0.044595 0.018996 -0.918290 0 127 127
-0.236979 -0.221379 0.146112 76 0 153
0.050240 0.057859 -0.472723 76 0 153
0.166878 -0.091799 0.067534 0 127 127
0.089561 0.049287 0.055159 153 76 0
-0.093777 -0.005168 -0.085727 0 127 127
-0.066728 0.009828 -0.607649 0 127 127
-0.415759 0.553210 0.023902 0 255 0
0.077005 0.230218 0.164968 153 76 0
-0.068696 -0.257142 0.436796 76 0 153
0.103817 -0.346257 0.147731 76 0 153
-0.379925 0.461287 0.075682 0 255 0
0.432961 0.623293 0.061801 0 255 0
-0.124879 0.065028 0.147134 76 0 153
-0.038054 0.091018 0.233161 76 0 153
0.038735 -0.032122 0.582670 0 127 127
0.011296 -0.198635 -0.265629 76 0 153
0.088035 0.004050 -0.627577 0 127 127
-0.066237 0.091568 0.198061 76 0 153
0.115030 0.003578 0.383637 76 0 153
-0.597046 0.472759 0.225217 0 255 0
0.105229 0.124228 0.028043 153 76 0
-0.175987 -0.428173 0.575906 76 153 0
-0.013481 -0.008550 -0.578045 76 0 153
-0.198682 0.477800 0.160500 0 255 0
-0.297662 0.614588 0.173982 0 255 0
-0.071001 -0.302311 -0.602794 0 127 127
0.676495 0.474413 0.189262 0 255 0
0.167392 0.008912 0.292913 76 0 153
-0.011720 -0.388250 0.820361 0 127 127
-0.030401 -0.209671 0.762043 0 127 127
0.136484 -0.019852 -0.153816 76 0 153
-0.045454 0.018640 -0.162971 0 127 127
-0.118333 -0.024009 -0.333437 0 127 127
0.085369 -0.063108 0.468161 76 0 153
-0.382150 0.604909 0.198084 0 255 0
0.002570 0.519162 0.180042 0 255 0
0.134712 -0.466747 0.575081 76 153 0
-0.125592 -0.100418 -0.554296 76 0 153
-0.068762 0.650576 0.129077 0 255 0
-0.246168 -0.148710 -0.001457 76 0 153
0.191700 -0.167694 -0.130292 76 0 153
-0.168696 0.615527 0.110073 0 255 0
-0.038374 0.168968 0.187753 153 76 0
0.021837 0.053012 -0.020103 153 76 0
0.201267 0.009035 0.093965 76 0 153
0.052186 0.655510 0.167620 0 255 0
-0.095853 0.559967 0.186228 0 255 0
0.175615 -0.139339 0.422459 0 127 127
0.125654 -0.270270 0.103104 0 127 127
0.060858 0.539748 0.063647 0 255 0
-0.166739 -0.138493 -0.920918 0 127 127
-0.194525 0.611145 0.087991 0 255 0
-0.066739 -0.304077 -0.837171 0 127 127
-0.156581 0.010355 -0.577588 76 0 153
0.055562 -0.106376 -0.920918 0 127 127
0.217523 -0.055685 -0.657343 76 0 153
-0.165129 -0.111975 -0.109562 0 127 127
0.073590 -0.304286 -0.531589 0 127 127
0.053189 -0.004237 -0.920918 0 127 127
-0.180911 -0.106622 -0.709295 76 0 153
0.019004 0.024290 -0.491110 0 127 127
0.130299 -0.213266 0.705010 0 127 127
0.059606 -0.057174 -0.249247 76 0 153
-0.141719 -0.557207 0.705948 76 153 0
-0.193716 -0.064222 -0.122862 76 0 153
-0.338552 0.598126 0.050025 0 255 0
-0.073582 0.239927 0.142308 153 76 0
0.161717 -0.501240 0.766596 76 153 0
-0.198617 0.009801 0.207976 76 0 153
0.424607 0.637658 0.161666 0 255 0
-0.124528 0.557954 0.057132 0 255 0
0.030395 0.432871 0.155785 0 255 0
0.054945 0.128153 0.051778 153 76 0
-0.215991 0.468026 0.108350 0 255 0
0.067261 -0.306907 0.019278 0 127 127
-0.147981 -0.062604 0.388252 0 127 127
0.153546 -0.315978 0.180218 76 0 153
-0.162107 -0.237839 0.501643 0 127 127
-0.218354 -0.030093 -0.001958 76 0 153
0.041042 0.176076 0.022789 153 76 0
0.115961 0.092129 0.034239 153 76 0
0.124622 -0.334249 0.763224 0 127 127
0.086403 0.085628 0.060260 76 0 153
0.010118 0.450270 0.045447 0 255 0
0.125075 -0.142429 0.454820 76 0 153
0.217523 -0.033451 -0.587988 76 0 153
-0.209227 -0.121954 -0.472723 76 0 153
-0.147602 -0.070114 0.445709 0 127 127
-0.146556 -0.557207 0.635110 76 153 0
0.068945 -0.352728 -0.708433 76 0 153
0.215769 -0.057268 0.272136 76 0 153
-0.113300 -0.003449 0.396124 76 0 153
0.026789 0.326531 0.072604 0 255 0
-0.421432 0.491092 0.038675 0 255 0
0.063993 -0.348313 -0.011203 76 0 153
0.017397 0.058682 0.346717 76 0 153
-0.059864 -0.306674 0.323893 0 127 127
-0.156758 -0.321143 0.559758 0 127 127
-0.666881 0.451155 0.105450 0 255 0
0.175438 -0.134409 0.219504 0 127 127
-0.031771 0.121225 -0.010874 153 76 0
-0.094155 0.586317 0.172846 0 255 0
-0.018128 0.070487 0.089354 153 76 0
-0.231713 -0.098432 -0.038718 76 0 153
0.708404 0.575610 0.059744 0 255 0
0.030521 -0.357999 0.234795 76 0 153
0.178869 -0.501239 0.738964 76 153 0
-0.078262 0.063717 0.301019 76 0 153
-0.041230 -0.442205 0.461141 76 153 0
0.092475 -0.425958 0.794714 0 127 127
-0.209679 -0.221046 -0.628795 76 0 153
0.176858 -0.145197 -0.046480 0 127 127
0.140537 -0.295511 0.486225 0 127 127
0.164562 -0.086207 -0.295708 0 127 127
-0.040217 -0.334403 -0.086506 76 0 153
0.040210 0.339181 0.169505 0 255 0
-0.438567 0.545568 0.019853 0 255 0
0.155713 -0.064845 -0.692409 0 127 127
0.148401 -0.265017 0.460853 0 127 127
-0.111517 -0.537641 0.494482 76 153 0
-0.007509 -0.319088 -0.573719 0 127 127
0.003649 -0.284860 0.800357 0 127 127
-0.004728 0.597466 0.235390 0 255 0
0.199542 -0.265452 0.217991 76 0 153
0.176487 0.017186 0.234932 76 0 153
0.136452 -0.282895 -0.709295 76 0 153
0.525794 0.510047 0.015661 0 255 0
0.078490 0.008003 0.158334 0 127 127
-0.627757 0.662150 0.118113 0 255 0
0.135925 0.057230 0.212477 76 0 153
0.171206 0.014842 0.259611 76 0 153
0.080240 0.140856 0.199727 153 76 0
0.000567 -0.485310 0.500340 76 153 0
0.033203 0.022421 0.067472 0 127 127
-0.150162 -0.069199 -0.512102 0 127 127
0.180957 0.480729 0.087820 0 255 0
-0.001345 0.025647 -0.561903 0 127 127
-0.155334 -0.212566 -0.745428 0 127 127
0.122726 -0.038188 0.489169 0 127 127
0.133284 -0.281668 -0.108572 76 0 153
-0.375930 0.604605 0.049466 0 255 0
0.161028 -0.077675 -0.645675 0 127 127
0.217523 -0.245984 -0.566313 76 0 153
-0.124879 0.111418 0.080907 153 76 0
0.134992 -0.035798 -0.524866 0 127 127
-0.017409 -0.496861 0.502707 76 153 0
0.101247 0.577130 0.045274 0 255 0
-0.026428 0.062892 -0.709295 76 0 153
0.055397 0.017569 -0.820590 0 127 127
0.168666 -0.097042 0.410429 0 127 127
-0.020980 -0.317315 0.115915 0 127 127
-0.526934 0.617079 0.032646 0 255 0
0.597047 0.666531 0.150124 0 255 0
0.168179 -0.094938 -0.530166 0 127 127
-0.068844 -0.003974 0.478527 0 127 127
-0.168827 -0.140062 -0.036128 0 127 127
0.196671 -0.245686 -0.472723 76 0 153
-0.068888 0.215557 0.171779 153 76 0
-0.013841 0.449603 0.192651 0 255 0
-0.163245 -0.193468 -0.280723 0 127 127
0.031328 0.101278 0.248079 76 0 153
-0.008110 -0.319009 -0.167714 0 127 127
-0.625481 0.448083 0.059535 0 255 0
0.188053 -0.287081 0.147705 76 0 153
-0.169629 -0.146157 0.120757 0 127 127
-0.269022 0.499669 0.194065 0 255 0
0.084232 -0.243932 0.433320 76 0 153
0.170191 -0.013819 0.323055 76 0 153
0.444647 0.524416 0.222773 0 255 0
0.175198 0.604768 0.084523 0 255 0
0.727124 0.578127 0.120531 0 255 0
-0.119266 -0.269362 -0.842823 0 127 127
0.096500 -0.069280 0.600896 0 127 127
-0.123654 -0.315615 0.281548 76 0 153
-0.155090 -0.271116 -0.104998 76 0 153
0.619451 0.630860 0.206926 0 255 0
0.170185 -0.284806 0.553135 0 127 127
0.171863 -0.104763 0.368564 0 127 127
-0.706626 0.576240 0.167779 0 255 0
0.147205 -0.059097 0.448241 0 127 127
-0.291936 0.626497 0.096539 0 255 0
0.473805 0.548174 0.229161 0 255 0
-0.144314 -0.168409 -0.920918 0 127 127
0.175887 -0.179742 0.480918 0 127 127
-0.110327 -0.175795 -0.920918 0 127 127
-0.106245 -0.512412 0.490436 76 153 0
0.121448 -0.322415 -0.517810 76 0 153
0.165427 -0.172764 -0.920918 0 127 127
0.080422 0.547984 0.019699 0 255 0
0.051540 -0.015937 -0.636911 76 0 153
0.217523 -0.037901 -0.530014 76 0 153
0.674392 0.612016 0.045631 0 255 0
-0.143115 0.613506 0.132767 0 255 0
-0.495521 0.649615 0.099294 0 255 0
-0.236877 -0.214026 0.042048 76 0 153
-0.169991 -0.222623 -0.472723 76 0 153
0.062955 0.171401 0.030868 153 76 0
0.073371 0.010124 -0.878674 0 127 127
-0.034765 0.606315 0.224984 0 255 0
-0.136107 0.022176 -0.631961 76 0 153
-0.152720 0.014126 -0.088327 76 0 153
-0.235001 -0.229130 0.123670 76 0 153
-0.624555 0.546232 0.244471 0 255 0
-0.061633 -0.306192 0.080363 0 127 127
0.003447 -0.299969 -0.164477 76 0 153
0.250860 0.623292 0.109870 0 255 0
0.087407 -0.298767 -0.127199 0 127 127
-0.027517 0.022201 -0.667834 0 127 127
-0.182260 -0.425958 0.613404 76 153 0
0.238494 -0.060212 0.152970 76 0 153
-0.168325 -0.157996 -0.633528 0 127 127
-0.151854 0.058103 0.073716 76 0 153
-0.131082 0.025078 -0.506339 76 0 153
0.149512 -0.239531 -0.514930 0 127 127
-0.115662 -0.330712 -0.020594 76 0 153
-0.057701 0.015303 0.349155 0 127 127
0.044433 -0.337876 0.297270 76 0 153
0.136806 -0.177660 -0.557918 76 0 153
-0.045829 0.018485 -0.882935 0 127 127
0.100977 -0.008175 0.436038 0 127 127
-0.176181 0.506293 0.186350 0 255 0
-0.001981 0.126634 0.261529 153 76 0
-0.154237 0.054905 0.165637 76 0 153
0.471734 0.439740 0.114567 0 255 0
0.004387 0.102753 -0.633654 76 0 153
0.063214 -0.124710 -0.267819 76 0 153
-0.057164 0.067754 -0.700588 76 0 153
-0.182796 -0.489890 0.592345 76 153 0
-0.050089 0.071839 -0.550290 76 0 153
-0.081957 -0.326522 -0.084319 76 0 153
0.073759 0.133099 0.009874 153 76 0
-0.040238 -0.314779 -0.809062 0 127 127
-0.016136 0.045785 0.370063 76 0 153
-0.136909 -0.246370 -0.719038 0 127 127
0.136701 0.020686 0.317982 76 0 153
0.144405 -0.475949 0.706356 76 153 0
0.009363 0.070487 0.166522 153 76 0
-0.049329 0.113399 0.205023 153 76 0
0.207448 -0.005796 0.165725 76 0 153
0.162852 -0.082080 -0.516481 0 127 127
-0.163944 -0.191274 -0.241928 0 127 127
0.151504 -0.323236 0.105534 76 0 153
0.077905 0.604978 0.207954 0 255 0
-0.051505 0.531842 0.181979 0 255 0
0.160935 -0.216801 -0.881566 0 127 127
-0.036482 -0.315274 -0.376479 0 127 127
-0.467097 0.485475 0.036457 0 255 0
-0.039000 0.078241 -0.483835 76 0 153
0.516430 0.607971 0.033745 0 255 0
-0.156345 -0.189554 0.414761 76 0 153
-0.161088 -0.095578 -0.223097 0 127 127
-0.543258 0.530425 0.006383 0 255 0
0.084790 0.135138 0.113006 153 76 0
0.069395 0.029958 -0.144815 76 0 153
-0.035332 -0.144795 0.717877 0 127 127
0.164629 -0.156345 -0.176606 76 0 153
0.099642 -0.369089 0.493439 0 127 127
0.149621 -0.341400 0.732365 0 127 127
-0.173235 -0.088412 0.392563 76 0 153
0.175732 -0.516159 0.557532 76 153 0
0.545220 0.662948 0.141249 0 255 0
0.138415 -0.165431 -0.594954 76 0 153
0.062600 0.116017 0.206332 153 76 0
-0.002658 -0.102604 0.684596 0 127 127
-0.104881 -0.501108 0.814680 76 153 0
0.203661 -0.272328 0.085963 76 0 153
0.176622 -0.162940 0.453556 0 127 127
0.608792 0.660477 0.165294 0 255 0
-0.086376 -0.185564 0.722143 0 127 127
0.039293 0.149468 0.043481 153 76 0
-0.049503 -0.190891 -0.259661 76 0 153
0.172637 -0.181120 0.117419 0 127 127
-0.689877 0.490606 0.072328 0 255 0
-0.047124 0.050961 -0.472723 76 0 153
0.154901 -0.230126 0.381197 76 0 153
0.145264 -0.245067 -0.044373 0 127 127
0.147129 -0.051616 -0.498850 0 127 127
0.236610 -0.074138 0.194844 76 0 153
-0.096928 -0.442567 0.764920 76 153 0
-0.167526 -0.338902 0.617405 0 127 127
-0.209679 -0.048326 -0.482084 76 0 153
-0.125810 -0.315369 -0.498604 76 0 153
0.358386 0.564722 0.033848 0 255 0
0.042689 0.186040 0.241520 153 76 0
0.048059 0.531690 0.005669 0 255 0
0.130154 -0.092495 -0.493406 76 0 153
0.055733 0.017430 -0.170365 0 127 127
-0.182058 0.031073 0.145090 76 0 153
-0.224163 -0.097959 0.290354 76 0 153
0.034059 0.085622 -0.487275 76 0 153
-0.173318 0.000692 -0.645323 76 0 153
0.120246 -0.019834 -0.022276 0 127 127
-0.120264 -0.026191 -0.604591 0 127 127
0.173695 -0.173081 -0.555881 0 127 127
-0.668742 0.635049 0.159803 0 255 0
-0.122155 0.063169 0.237634 76 0 153
-0.503614 0.588258 0.021846 0 255 0
0.160198 0.012796 -0.622387 76 0 153
0.155702 -0.229435 -0.194428 0 127 127
0.030166 -0.338369 -0.074531 76 0 153
-0.105527 -0.224703 -0.675759 76 0 153
0.076946 0.060862 -0.625071 76 0 153
0.424823 0.484724 0.044017 0 255 0
0.039412 -0.557207 0.815021 76 153 0
0.173156 -0.177174 0.244339 0 127 127
0.216956 -0.114778 -0.709295 76 0 153
-0.036072 0.021075 -0.025312 0 127 127
0.441678 0.646889 0.124774 0 255 0
0.094551 -0.294136 0.127490 0 127 127
0.497727 0.520276 0.019088 0 255 0
0.122026 0.190947 0.038752 153 76 0
0.042211 -0.471775 0.460302 76 153 0
0.226474 -0.044968 0.038394 76 0 153
-0.131687 -0.253176 -0.831839 0 127 127
0.133018 -0.033226 -0.040868 0 127 127
0.094573 0.149921 0.211565 153 76 0
0.266789 0.526738 0.203517 0 255 0
0.008641 -0.349638 -0.042701 76 0 153
-0.164673 -0.185739 -0.108015 0 127 127
-0.085392 -0.295520 -0.508502 0 127 127
-0.064401 -0.064633 0.616029 0 127 127
-0.047519 0.017785 -0.351756 0 127 127
-0.078405 -0.359278 0.162595 76 0 153
-0.535041 0.563998 0.007967 0 255 0
-0.109040 -0.054681 0.448079 76 0 153
0.111851 0.510612 0.067159 0 255 0
0.537506 0.452725 0.191701 0 255 0
0.089291 -0.315808 -0.472723 76 0 153
0.048102 -0.314712 -0.468488 76 0 153
0.140388 -0.251422 0.202700 0 127 127
0.211682 -0.145843 -0.095859 76 0 153
-0.097925 -0.338777 -0.011062 76 0 153
-0.090795 0.064562 0.023204 153 76 0
0.064654 0.049287 0.181453 153 76 0
-0.088029 0.173074 0.021606 153 76 0
-0.073802 0.095783 0.112094 153 76 0
0.213022 -0.062892 -0.472723 76 0 153
-0.012101 -0.367832 0.818874 0 127 127
0.161334 -0.215839 -0.120773 0 127 127
0.010811 -0.318800 0.336701 0 127 127
-0.072184 0.007569 -0.779991 0 127 127
-0.152719 -0.252373 0.483335 0 127 127
-0.154280 -0.214073 0.339056 0 127 127
-0.263039 0.625143 0.141104 0 255 0
-0.069682 -0.252830 -0.920918 0 127 127
-0.048947 0.278649 0.137597 0 255 0
-0.315543 0.547086 0.213146 0 255 0
0.055101 -0.311944 -0.137140 0 127 127
0.069928 -0.493379 0.835791 76 153 0
0.210146 -0.057347 -0.709295 76 0 153
0.151289 -0.057038 0.246755 0 127 127
-0.145828 -0.234746 -0.121813 0 127 127
0.607754 0.512457 0.002846 0 255 0
-0.052305 -0.357806 -0.654125 76 0 153
0.138102 0.025553 -0.603237 76 0 153
-0.076939 0.133597 0.099336 153 76 0
-0.117633 -0.270780 -0.569330 0 127 127
0.023850 0.374125 0.175281 0 255 0
-0.123465 -0.084472 -0.219859 76 0 153
-0.145315 -0.327051 0.189394 76 0 153
-0.142815 -0.443950 0.522426 76 153 0
-0.087905 0.049287 0.063495 153 76 0
0.031796 0.261511 0.127817 0 255 0
-0.084868 0.001669 -0.250842 0 127 127
0.142913 -0.310023 -0.510306 76 0 153
0.027655 -0.020697 -0.920918 0 127 127
-0.155197 0.016999 0.306603 76 0 153
-0.150481 -0.107450 0.529698 0 127 127
-0.060788 -0.361067 0.038644 76 0 153
0.114659 -0.488405 0.755122 76 153 0
0.654754 0.459517 0.189664 0 255 0
0.174452 -0.205873 0.505838 0 127 127
-0.055571 0.520041 0.067175 0 255 0
-0.180130 0.027428 0.026208 76 0 153
0.179081 -0.175373 -0.472723 76 0 153
-0.049945 0.060664 0.178874 153 76 0
-0.035346 0.058725 -0.114742 76 0 153
-0.164173 -0.189535 -0.344959 0 127 127
0.016667 0.431186 0.083900 0 255 0
0.111183 -0.227554 -0.491167 76 0 153
0.192222 -0.557207 0.608862 76 153 0
0.098704 -0.182851 0.463801 76 0 153
0.155051 -0.208076 -0.920918 0 127 127
0.076621 -0.256304 -0.198753 76 0 153
0.005120 -0.189126 -0.920918 0 127 127
-0.157080 -0.540450 0.763053 76 153 0
-0.221337 0.469365 0.148303 0 255 0
0.157692 -0.311970 0.046882 76 0 153
-0.137172 -0.350789 0.533782 0 127 127
0.268890 0.467796 0.156956 0 255 0
0.300914 0.628913 0.136692 0 255 0
0.137574 0.060144 0.033766 76 0 153
-0.667328 0.545509 0.028176 0 255 0
0.129765 -0.332507 0.179006 76 0 153
0.282787 0.491986 0.189184 0 255 0
-0.463924 0.561682 0.020248 0 255 0
0.121518 -0.020809 -0.285059 0 127 127
-0.492441 0.642717 0.170004 0 255 0
-0.637870 0.490453 0.028551 0 255 0
-0.628149 0.554920 0.009692 0 255 0
-0.051801 -0.297371 0.793981 0 127 127
0.148452 -0.053341 -0.443302 0 127 127
0.031551 -0.222199 -0.920918 0 127 127
0.697184 0.590912 0.188796 0 255 0
0.188208 -0.283871 -0.614129 76 0 153
0.176594 -0.276970 0.610892 0 127 127
-0.060920 -0.054400 -0.247935 76 0 153
-0.085701 -0.119338 0.488925 76 0 153
0.432904 0.625903 0.181205 0 255 0
-0.142368 -0.299007 0.291391 76 0 153
-0.112101 -0.516438 0.748870 76 153 0
0.021347 0.070487 0.089189 153 76 0
-0.319712 0.577439 0.039369 0 255 0
0.521541 0.652126 0.098792 0 255 0
-0.014077 0.400817 0.072298 0 255 0
0.140223 -0.042616 -0.641922 0 127 127
0.215487 0.522586 0.049918 0 255 0
0.402054 0.508970 0.214979 0 255 0
-0.165724 -0.201726 0.582959 0 127 127
0.060149 -0.019503 -0.598216 76 0 153
-0.103852 -0.281251 0.320091 0 127 127
0.081059 -0.178437 0.724888 0 127 127
0.022709 0.095275 0.211562 76 0 153
-0.041234 0.141312 0.218979 153 76 0
-0.149273 -0.227200 0.202069 0 127 127
-0.140706 -0.052832 -0.760281 0 127 127
-0.062232 -0.352075 -0.690289 76 0 153
0.046307 -0.277826 -0.191094 76 0 153
0.163364 -0.244688 -0.709295 76 0 153
-0.209679 -0.235687 -0.524082 76 0 153
-0.043046 0.358221 0.149404 0 255 0
-0.019992 -0.009407 -0.488821 76 0 153
-0.081302 -0.298044 -0.102116 0 127 127
0.318609 0.460837 0.153073 0 255 0
0.155020 -0.231083 -0.692555 0 127 127
-0.114360 -0.085431 0.590155 0 127 127
0.003882 -0.219908 0.483226 76 0 153
0.036387 -0.451491 0.844534 76 153 0
-0.150492 -0.069996 0.006191 0 127 127
0.243415 0.602191 0.179606 0 255 0
-0.030837 0.644714 0.080723 0 255 0
0.150388 -0.055863 -0.115047 0 127 127
0.351516 0.487703 0.051613 0 255 0
-0.003796 -0.319577 -0.857727 0 127 127
0.068404 -0.310896 0.348552 76 0 153
-0.055978 0.014281 -0.465031 0 127 127
-0.146523 -0.262881 0.357026 0 127 127
-0.057312 -0.162687 0.721762 0 127 127
-0.068149 0.555143 0.019849 0 255 0
0.081109 -0.301171 -0.420374 0 127 127
0.628271 0.665235 0.111796 0 255 0
-0.051754 -0.310284 -0.043046 0 127 127
-0.411934 0.601500 0.204257 0 255 0
-0.467649 0.523987 0.020388 0 255 0
0.135393 -0.182105 -0.648869 76 0 153
-0.169452 -0.159910 0.449536 0 127 127
-0.098953 -0.009139 -0.841138 0 127 127
0.085020 0.005299 -0.512014 0 127 127
0.033693 -0.266763 0.435804 76 0 153
0.070412 0.011349 -0.461942 76 0 153
-0.677216 0.633016 0.115592 0 255 0
-0.166570 -0.461069 0.750686 76 153 0
0.030425 0.556284 -0.000097 0 255 0
-0.101183 -0.230363 -0.646760 76 0 153
-0.187174 -0.286544 0.017962 76 0 153
-0.057764 0.095016 0.048195 76 0 153
-0.040475 -0.414035 0.818381 0 127 127
0.128641 -0.104846 0.446176 76 0 153
0.037336 0.571477 0.076031 0 255 0
0.123244 0.055118 -0.029301 76 0 153
-0.166518 -0.122527 -0.620447 0 127 127
0.060563 -0.267934 -0.199317 76 0 153
0.017818 0.024446 -0.349394 0 127 127
0.136340 -0.037465 0.402530 76 0 153
0.098709 -0.347564 0.479519 0 127 127
-0.438433 0.519658 0.222451 0 255 0
-0.124879 0.049527 0.068094 153 76 0
0.114290 -0.552740 0.490965 76 153 0
0.209804 -0.251297 0.196173 76 0 153
-0.539451 0.663390 0.147972 0 255 0
-0.123821 -0.263427 0.269975 0 127 127
0.172100 -0.185195 0.308698 0 127 127
-0.563766 0.592345 0.011289 0 255 0
0.066933 -0.469581 0.789061 76 153 0
-0.168619 -0.018375 -0.110817 76 0 153
-0.056895 -0.500526 0.790172 76 153 0
-0.139556 -0.149225 0.445794 76 0 153
0.061840 0.014900 0.120492 0 127 127
-0.695855 0.476954 0.114605 0 255 0
0.023970 0.023636 -0.857161 0 127 127
-0.169157 -0.142574 -0.836282 0 127 127
-0.132729 -0.009816 -0.156403 76 0 153
0.101806 0.049287 0.131873 153 76 0
0.141207 0.487700 0.085167 0 255 0
0.102410 -0.288106 -0.782961 0 127 127
0.201142 -0.077153 -0.102563 76 0 153
0.117931 -0.164210 -0.225194 76 0 153
0.078334 0.147785 0.056637 153 76 0
0.021346 0.070487 0.127506 153 76 0
0.217523 -0.262937 -0.530305 76 0 153
-0.076424 -0.300065 0.304598 0 127 127
-0.169351 0.483402 0.083797 0 255 0
-0.157348 -0.168791 0.591676 0 127 127
-0.058264 0.133676 0.062641 153 76 0
-0.164618 -0.186157 -0.305140 0 127 127
-0.594598 0.568759 0.245929 0 255 0
-0.108215 0.179366 0.033261 153 76 0
-0.024658 0.651755 0.185948 0 255 0
-0.063788 0.011046 -0.845790 0 127 127
0.117840 -0.276266 -0.726422 0 127 127
0.120144 0.599594 0.114815 0 255 0
-0.050837 -0.358759 0.463276 0 127 127
-0.033687 0.111938 0.243224 153 76 0
0.175525 -0.232217 0.339823 76 0 153
0.143831 -0.428149 0.596328 76 153 0
-0.183686 -0.281954 -0.524557 76 0 153
0.225552 -0.112958 0.277639 76 0 153
-0.162803 -0.099718 0.301976 0 127 127
0.098718 0.070788 -0.005579 76 0 153
0.024836 0.023522 -0.588938 0 127 127
0.014872 0.150398 -0.024125 153 76 0
-0.117761 -0.270682 -0.170576 0 127 127
0.556827 0.634841 0.202583 0 255 0
-0.147154 -0.232315 0.159485 0 127 127
-0.099260 -0.009375 -0.674977 0 127 127
0.041242 -0.251230 0.447231 76 0 153
0.006856 0.361807 0.066128 0 255 0
-0.167850 -0.132644 -0.640243 0 127 127
-0.209679 -0.040906 -0.589137 76 0 153
-0.181698 -0.296014 0.058281 76 0 153
0.523148 0.486970 0.217264 0 255 0
-0.018254 0.023421 -0.323983 0 127 127
-0.077288 0.024490 -0.153189 76 0 153
-0.085319 -0.338746 -0.589766 76 0 153
-0.064047 -0.131616 -0.270835 76 0 153
-0.060032 0.165575 0.040494 153 76 0
-0.164043 -0.557207 0.736314 76 153 0
0.120732 -0.161888 -0.920918 0 127 127
0.035977 0.469965 0.031473 0 255 0
-0.068668 0.579966 0.073183 0 255 0
0.307389 0.532002 0.037857 0 255 0
-0.062098 -0.305999 0.264828 0 127 127
0.703988 0.526160 0.193831 0 255 0
-0.134198 -0.044350 -0.090444 0 127 127
-0.261621 0.551403 0.040630 0 255 0
0.112546 -0.280328 -0.359754 0 127 127
0.115339 -0.209849 0.719151 0 127 127
0.122477 -0.298514 0.314741 76 0 153
0.071577 0.010867 -0.009657 0 127 127
-0.041613 -0.091660 0.666507 0 127 127
0.260138 0.551801 0.204752 0 255 0
-0.049364 0.078704 0.054135 153 76 0
0.140963 -0.141168 -0.638066 76 0 153
-0.526704 0.661213 0.112582 0 255 0
-0.096642 0.108475 0.026579 153 76 0
0.082530 0.009088 -0.173245 76 0 153
0.201780 0.003524 0.057820 76 0 153
-0.070749 -0.362118 0.127139 76 0 153
0.245555 -0.130880 0.026594 76 0 153
0.222793 -0.237991 0.088363 76 0 153
0.122776 -0.021775 -0.104259 0 127 127
-0.078150 -0.333013 0.455581 0 127 127
-0.124879 0.145182 0.098763 153 76 0
-0.209679 -0.156317 -0.485751 76 0 153
-0.136159 -0.540631 0.595562 76 153 0
-0.001877 0.627681 0.218436 0 255 0
0.035511 -0.010745 0.444333 76 0 153
-0.025747 0.072715 0.040376 153 76 0
-0.025060 -0.047375 0.611202 0 127 127
0.174694 -0.557207 0.747649 76 153 0
-0.222417 -0.246238 0.154828 76 0 153
0.045031 0.020864 -0.669703 0 127 127
0.063747 -0.431059 0.513688 76 153 0
0.568709 0.605296 0.227991 0 255 0
-0.019795 -0.442744 0.801048 76 153 0
-0.164383 -0.106315 0.219927 0 127 127
-0.107774 -0.332200 0.770234 0 127 127
-0.046015 -0.343296 -0.051806 76 0 153
0.060010 0.015658 0.061246 0 127 127
0.114085 -0.543862 0.548200 76 153 0
-0.667925 0.619759 0.064124 0 255 0
-0.025313 -0.361935 0.218100 76 0 153
0.561627 0.551867 -0.000263 0 255 0
0.033981 -0.360127 -0.472723 76 0 153
0.248853 0.500567 0.056443 0 255 0
-0.092097 -0.003878 0.093753 0 127 127
-0.052981 -0.238173 0.770171 0 127 127
-0.152293 0.588900 0.178722 0 255 0
0.130930 0.183002 0.087870 153 76 0
0.192585 -0.281344 -0.554024 76 0 153
-0.147574 -0.476949 0.775442 76 153 0
0.398414 0.616124 0.189090 0 255 0
0.059149 -0.013615 -0.709295 76 0 153
-0.103391 -0.141081 -0.920918 0 127 127
0.060716 0.370833 0.118760 0 255 0
0.169054 -0.557207 0.629345 76 153 0
0.159105 -0.283340 0.516274 0 127 127
-0.146681 -0.241697 0.428084 0 127 127
0.155949 -0.379115 0.729648 0 127 127
0.135613 -0.257645 -0.488430 0 127 127
0.240019 -0.196996 0.074409 76 0 153
0.023867 -0.378754 -0.658179 76 0 153
-0.144339 -0.078570 0.493877 0 127 127
0.170909 -0.101530 0.001006 0 127 127
-0.209679 -0.225381 -0.489027 76 0 153
-0.268717 0.558341 0.205716 0 255 0
-0.179547 -0.539965 0.719568 76 153 0
-0.139645 -0.295637 0.498115 0 127 127
0.444397 0.556955 0.022768 0 255 0
0.035333 -0.316393 0.262236 0 127 127
-0.436005 0.441836 0.117392 0 255 0
-0.421880 0.619261 0.191299 0 255 0
0.484775 0.601332 0.034576 0 255 0
0.263599 0.463685 0.136736 0 255 0
-0.134915 -0.210597 0.429222 76 0 153
-0.078892 0.518793 0.064960 0 255 0
0.060716 0.305094 0.133056 0 255 0
0.154095 -0.060937 -0.009240 0 127 127
0.023294 -0.145789 0.721772 0 127 127
0.067161 -0.306949 0.146515 0 127 127
0.209579 -0.260129 0.150681 76 0 153
0.072826 -0.023029 -0.920918 0 127 127
-0.000899 0.025705 0.141730 0 127 127
0.147327 -0.282796 0.716333 0 127 127
-0.070144 0.049287 0.040963 153 76 0
-0.121406 -0.340985 0.088972 76 0 153
0.517626 0.642449 0.173021 0 255 0
-0.169343 -0.150268 -0.556611 0 127 127
0.157154 -0.068322 -0.736323 0 127 127
0.072468 -0.350694 -0.575903 76 0 153
0.138459 -0.040317 -0.851990 0 127 127
0.056309 0.085404 0.233129 76 0 153
0.034001 0.070487 0.177696 153 76 0
0.019296 -0.089504 -0.920918 0 127 127
-0.112857 -0.344376 0.153289 76 0 153
0.096023 0.589930 0.196773 0 255 0
-0.244798 -0.188831 0.176415 76 0 153
0.029208 0.049287 0.037888 153 76 0
-0.023681 -0.128737 -0.280012 76 0 153
0.165784 -0.205095 -0.655023 0 127 127
0.114189 0.108253 0.200240 153 76 0
-0.025455 -0.316360 0.326635 0 127 127
0.036277 -0.316269 -0.692209 0 127 127
0.056620 -0.311315 0.181192 0 127 127
