-0.057174 -0.179181 0.721108 0.300000 0.600000 0.000000
-0.029356 0.197107 -0.131112 0.600000 0.300000 0.000000
-0.111709 -0.217298 -0.006793 0.600000 0.300000 0.000000
-0.203011 0.167496 -0.568424 0.300000 0.000000 0.600000
-0.030597 -0.117378 0.955374 0.300000 0.600000 0.000000
-0.128547 -0.014184 0.718737 0.300000 0.600000 0.000000
0.164864 0.074967 -0.235599 0.600000 0.300000 0.000000
-0.024951 0.373724 -0.048684 0.000000 1.000000 0.000000
-0.098084 0.120612 0.314078 0.300000 0.600000 0.000000
-0.078816 0.105311 -0.326731 0.600000 0.300000 0.000000
0.161729 -0.083071 0.266180 0.600000 0.300000 0.000000
0.025806 -0.018712 -0.443040 0.300000 0.000000 0.600000
0.065545 -0.298478 0.944854 0.300000 0.600000 0.000000
0.086765 -0.108871 0.567673 0.300000 0.600000 0.000000
-0.188801 0.257328 -0.458900 0.300000 0.000000 0.600000
0.177095 0.214707 -0.568424 0.300000 0.000000 0.600000
0.217368 0.356899 0.003427 0.000000 1.000000 0.000000
-0.309515 -0.141283 -0.553305 0.300000 0.000000 0.600000
0.128438 -0.236269 0.773130 0.300000 0.600000 0.000000
0.123443 0.054884 0.378416 0.300000 0.600000 0.000000
0.023071 0.271851 0.023232 0.000000 1.000000 0.000000
-0.043427 0.239496 -0.443040 0.300000 0.000000 0.600000
0.135971 -0.236140 -0.443040 0.300000 0.000000 0.600000
-0.321419 0.084466 -0.544778 0.300000 0.000000 0.600000
0.123738 -0.132627 0.300745 0.300000 0.600000 0.000000
-0.148301 0.102373 0.166929 0.600000 0.300000 0.000000
-0.145603 0.099081 -0.221174 0.600000 0.300000 0.000000
-0.060286 0.040969 -0.464484 0.600000 0.300000 0.000000
0.004741 0.292244 -0.443040 0.300000 0.000000 0.600000
-0.037568 0.323111 0.009245 0.000000 1.000000 0.000000
-0.069086 -0.067395 0.936266 0.300000 0.600000 0.000000
0.139486 -0.018852 0.361710 0.300000 0.600000 0.000000
0.153912 -0.135694 -0.188881 0.600000 0.300000 0.000000
-0.161619 0.038394 -0.348530 0.600000 0.300000 0.000000
0.072281 -0.140523 0.727101 0.300000 0.600000 0.000000
-0.015562 -0.187928 0.206096 0.600000 0.300000 0.000000
-0.128288 0.002878 0.764605 0.300000 0.600000 0.000000
0.084872 -0.161885 -0.418660 0.600000 0.300000 0.000000
0.061474 0.114572 0.375757 0.300000 0.600000 0.000000
-0.019560 0.178485 -0.197188 0.600000 0.300000 0.000000
0.182834 0.045049 -0.443040 0.300000 0.000000 0.600000
-0.118510 -0.083932 0.874536 0.300000 0.600000 0.000000
0.023512 -0.057667 -0.443040 0.300000 0.000000 0.600000
0.126052 0.048464 0.610411 0.300000 0.600000 0.000000
0.072724 0.147387 -0.348577 0.600000 0.300000 0.000000
-0.138270 0.014154 -0.443040 0.300000 0.000000 0.600000
0.170153 -0.054182 -0.443040 0.300000 0.000000 0.600000
0.136187 -0.269247 0.843253 0.300000 0.600000 0.000000
0.024640 0.125089 0.534936 0.300000 0.600000 0.000000
-0.129403 -0.006772 0.496949 0.300000 0.600000 0.000000
0.176456 0.009639 0.274067 0.600000 0.300000 0.000000
0.029985 0.430970 -0.060930 0.000000 1.000000 0.000000
-0.337936 -0.010198 -0.556907 0.300000 0.000000 0.600000
0.033435 0.166140 -0.244273 0.600000 0.300000 0.000000
-0.027514 -0.215310 0.955844 0.300000 0.600000 0.000000
-0.159586 -0.070541 0.240351 0.600000 0.300000 0.000000
0.015365 -0.022783 -0.326731 0.600000 0.300000 0.000000
-0.045437 0.164057 0.198375 0.600000 0.300000 0.000000
-0.244278 -0.141569 -0.443040 0.300000 0.000000 0.600000
-0.110750 0.134536 0.179810 0.600000 0.300000 0.000000
-0.149846 0.424426 -0.025950 0.000000 1.000000 0.000000
-0.172307 -0.230226 -0.443040 0.300000 0.000000 0.600000
0.039063 0.288433 -0.568424 0.300000 0.000000 0.600000
0.005157 -0.014343 -0.443040 0.300000 0.000000 0.600000
0.209303 0.030466 0.096502 0.600000 0.300000 0.000000
0.330889 -0.042809 -0.568424 0.300000 0.000000 0.600000
-0.010233 0.365391 0.114399 0.000000 1.000000 0.000000
0.133649 -0.349177 0.786657 0.300000 0.600000 0.000000
0.040672 0.303079 -0.443040 0.300000 0.000000 0.600000
0.002220 -0.216633 -0.166362 0.600000 0.300000 0.000000
-0.001191 -0.343139 -0.471293 0.300000 0.000000 0.600000
-0.081597 0.374363 0.011365 0.000000 1.000000 0.000000
-0.179785 -0.018533 0.193890 0.600000 0.300000 0.000000
0.019229 0.200342 -0.443040 0.300000 0.000000 0.600000
0.058375 -0.173298 -0.454309 0.600000 0.300000 0.000000
0.015966 0.363785 -0.071393 0.000000 1.000000 0.000000
0.293393 0.019492 -0.443040 0.300000 0.000000 0.600000
0.085701 0.110386 0.345207 0.300000 0.600000 0.000000
0.328661 -0.075517 -0.443040 0.300000 0.000000 0.600000
0.073295 -0.166872 -0.376669 0.600000 0.300000 0.000000
-0.127039 -0.344952 0.803643 0.300000 0.600000 0.000000
0.274333 -0.209550 -0.461503 0.300000 0.000000 0.600000
0.087295 -0.109023 0.379606 0.300000 0.600000 0.000000
0.107842 -0.147401 0.279439 0.600000 0.300000 0.000000
0.206172 0.082012 -0.033506 0.600000 0.300000 0.000000
-0.103160 0.257778 -0.568424 0.300000 0.000000 0.600000
0.031816 0.376581 0.008682 0.000000 1.000000 0.000000
0.339835 0.020562 -0.502393 0.300000 0.000000 0.600000
0.157633 0.084837 -0.244587 0.600000 0.300000 0.000000
0.099352 -0.179008 0.156709 0.600000 0.300000 0.000000
-0.182858 0.206822 -0.443040 0.300000 0.000000 0.600000
0.149252 0.201402 -0.568424 0.300000 0.000000 0.600000
0.037645 -0.300013 -0.443040 0.300000 0.000000 0.600000
-0.074982 -0.127734 0.932220 0.300000 0.600000 0.000000
0.023834 0.432710 -0.077776 0.000000 1.000000 0.000000
-0.147342 0.411524 -0.050498 0.000000 1.000000 0.000000
-0.027489 -0.132906 0.955848 0.300000 0.600000 0.000000
0.029996 -0.150546 -0.568424 0.300000 0.000000 0.600000
0.137646 0.069486 -0.464484 0.600000 0.300000 0.000000
0.000719 0.238017 -0.096926 0.300000 0.000000 0.600000
0.108318 -0.088364 0.532123 0.300000 0.600000 0.000000
0.174949 -0.062141 0.215320 0.600000 0.300000 0.000000
-0.030286 0.387959 -0.046420 0.000000 1.000000 0.000000
0.230269 0.360508 -0.027169 0.000000 1.000000 0.000000
0.072276 -0.349003 0.941241 0.300000 0.600000 0.000000
-0.309156 -0.142083 -0.488841 0.300000 0.000000 0.600000
0.155096 0.075829 -0.368977 0.600000 0.300000 0.000000
-0.171765 -0.218346 -0.568424 0.300000 0.000000 0.600000
0.033883 -0.103336 -0.443040 0.300000 0.000000 0.600000
-0.256973 0.189428 -0.443040 0.300000 0.000000 0.600000
-0.068232 0.202911 -0.051582 0.600000 0.300000 0.000000
0.044720 0.157782 -0.342888 0.600000 0.300000 0.000000
-0.136517 -0.021318 0.346985 0.300000 0.600000 0.000000
-0.037751 0.298736 -0.065654 0.000000 1.000000 0.000000
-0.320125 -0.117655 -0.511036 0.300000 0.000000 0.600000
-0.104223 -0.370293 0.901372 0.300000 0.600000 0.000000
-0.121833 0.036083 0.715356 0.300000 0.600000 0.000000
0.151701 -0.109957 -0.254598 0.600000 0.300000 0.000000
-0.000476 0.130694 -0.326731 0.600000 0.300000 0.000000
-0.017247 -0.317172 0.957409 0.300000 0.600000 0.000000
-0.035827 0.234641 -0.009687 0.000000 1.000000 0.000000
0.090108 -0.161540 -0.287068 0.600000 0.300000 0.000000
0.177918 0.033563 -0.252923 0.600000 0.300000 0.000000
-0.180240 0.199608 -0.568424 0.300000 0.000000 0.600000
-0.172063 0.348080 -0.021028 0.000000 1.000000 0.000000
-0.027084 0.376581 -0.065030 0.000000 1.000000 0.000000
0.002191 0.375091 0.184507 0.000000 1.000000 0.000000
-0.102125 0.126386 -0.291694 0.600000 0.300000 0.000000
-0.235602 -0.091132 -0.568424 0.300000 0.000000 0.600000
-0.165084 0.194455 -0.443040 0.300000 0.000000 0.600000
0.055847 0.156871 0.234005 0.600000 0.300000 0.000000
-0.035419 -0.294216 0.953718 0.300000 0.600000 0.000000
0.178393 -0.162383 -0.568424 0.300000 0.000000 0.600000
0.064251 0.402171 0.003879 0.000000 1.000000 0.000000
-0.125804 0.024394 0.497783 0.300000 0.600000 0.000000
-0.118310 0.141031 -0.443040 0.300000 0.000000 0.600000
0.110850 -0.117759 0.905099 0.300000 0.600000 0.000000
0.154699 -0.077959 -0.443040 0.300000 0.000000 0.600000
-0.128339 0.002443 0.594011 0.300000 0.600000 0.000000
-0.279050 -0.077387 -0.568424 0.300000 0.000000 0.600000
0.115366 -0.118790 -0.464484 0.600000 0.300000 0.000000
0.217429 -0.113635 -0.443040 0.300000 0.000000 0.600000
-0.128848 -0.193403 0.816092 0.300000 0.600000 0.000000
0.069294 0.111090 0.654380 0.300000 0.600000 0.000000
-0.010074 0.435417 0.021797 0.000000 1.000000 0.000000
-0.156971 0.373793 0.025200 0.000000 1.000000 0.000000
0.066822 0.135245 0.327578 0.300000 0.600000 0.000000
0.016027 0.314225 -0.462465 0.300000 0.000000 0.600000
0.006468 0.185575 -0.076683 0.300000 0.000000 0.600000
-0.007353 0.152193 0.321116 0.300000 0.600000 0.000000
0.109205 0.153366 -0.443040 0.300000 0.000000 0.600000
-0.129261 -0.005548 0.386734 0.300000 0.600000 0.000000
-0.039312 0.156762 -0.323312 0.600000 0.300000 0.000000
-0.076988 0.305721 -0.457082 0.300000 0.000000 0.600000
-0.166470 0.012122 -0.418747 0.600000 0.300000 0.000000
-0.173804 -0.116804 0.129193 0.600000 0.300000 0.000000
0.121500 0.145058 -0.180422 0.600000 0.300000 0.000000
-0.064339 -0.336148 -0.451270 0.300000 0.000000 0.600000
0.042008 0.121773 0.786348 0.300000 0.600000 0.000000
-0.051200 -0.394144 0.713831 0.600000 0.000000 0.300000
-0.262539 -0.041981 -0.443040 0.300000 0.000000 0.600000
-0.254342 0.056365 -0.443040 0.300000 0.000000 0.600000
-0.005250 -0.137226 0.640724 0.300000 0.600000 0.000000
-0.015526 0.185575 -0.062880 0.300000 0.000000 0.600000
-0.110497 -0.142472 -0.275703 0.600000 0.300000 0.000000
0.042753 0.373841 0.069547 0.000000 1.000000 0.000000
0.111682 0.125859 0.252030 0.600000 0.300000 0.000000
0.199314 0.005409 0.142634 0.600000 0.300000 0.000000
-0.210172 0.079586 -0.568424 0.300000 0.000000 0.600000
-0.268930 -0.209990 -0.447197 0.300000 0.000000 0.600000
0.083322 0.126806 -0.443040 0.300000 0.000000 0.600000
-0.286040 0.046777 -0.568424 0.300000 0.000000 0.600000
0.120703 0.359473 -0.024347 0.000000 1.000000 0.000000
0.134463 0.025634 0.717238 0.300000 0.600000 0.000000
-0.003077 -0.109396 0.959569 0.300000 0.600000 0.000000
0.051534 0.372097 0.160296 0.000000 1.000000 0.000000
-0.337488 -0.006412 -0.461495 0.300000 0.000000 0.600000
0.217616 -0.003060 0.084427 0.600000 0.300000 0.000000
0.021686 0.161395 -0.300429 0.600000 0.300000 0.000000
0.144233 0.138594 -0.152110 0.600000 0.300000 0.000000
0.118053 -0.010340 -0.326731 0.600000 0.300000 0.000000
-0.145531 -0.228552 -0.568424 0.300000 0.000000 0.600000
0.096268 -0.298902 -0.568424 0.300000 0.000000 0.600000
0.307145 -0.134903 -0.443040 0.300000 0.000000 0.600000
-0.091533 0.087274 0.709027 0.300000 0.600000 0.000000
0.019131 0.010033 0.937797 0.300000 0.600000 0.000000
0.136489 -0.240989 0.804693 0.300000 0.600000 0.000000
-0.082319 -0.105840 0.558901 0.300000 0.600000 0.000000
-0.020867 -0.107703 -0.443040 0.300000 0.000000 0.600000
-0.228094 -0.055495 -0.443040 0.300000 0.000000 0.600000
-0.114881 0.053565 0.522444 0.300000 0.600000 0.000000
-0.077716 0.149970 -0.241603 0.600000 0.300000 0.000000
0.063922 0.400520 0.133483 0.000000 1.000000 0.000000
-0.125534 0.289314 -0.510062 0.300000 0.000000 0.600000
0.112669 -0.314211 0.902754 0.300000 0.600000 0.000000
-0.213748 -0.073628 -0.112852 0.600000 0.300000 0.000000
0.226953 0.004609 0.013285 0.600000 0.300000 0.000000
-0.053771 -0.218297 -0.568424 0.300000 0.000000 0.600000
0.204321 0.100125 -0.443040 0.300000 0.000000 0.600000
-0.025824 -0.241000 -0.057967 0.600000 0.300000 0.000000
-0.118174 -0.003459 0.850087 0.300000 0.600000 0.000000
-0.119324 0.042392 0.662891 0.300000 0.600000 0.000000
-0.114749 0.053897 0.743758 0.300000 0.600000 0.000000
0.223484 0.390432 -0.061282 0.000000 1.000000 0.000000
0.022392 -0.136320 0.515037 0.300000 0.600000 0.000000
-0.255656 -0.000532 -0.568424 0.300000 0.000000 0.600000
-0.106066 -0.098919 0.343138 0.300000 0.600000 0.000000
-0.164317 0.139592 0.051062 0.600000 0.300000 0.000000
0.036864 0.427713 0.010775 0.000000 1.000000 0.000000
0.042185 -0.235209 -0.082459 0.600000 0.300000 0.000000
0.117582 -0.075960 0.401563 0.300000 0.600000 0.000000
-0.124397 -0.086054 0.785459 0.300000 0.600000 0.000000
0.160075 0.037971 -0.464484 0.600000 0.300000 0.000000
-0.018122 -0.184680 0.222872 0.600000 0.300000 0.000000
0.138272 0.098943 0.273317 0.600000 0.300000 0.000000
-0.011140 0.160788 -0.438830 0.600000 0.300000 0.000000
0.008081 0.095955 -0.326731 0.600000 0.300000 0.000000
-0.145501 -0.189026 0.034323 0.600000 0.300000 0.000000
0.102997 -0.095489 0.394155 0.300000 0.600000 0.000000
-0.104181 -0.081774 0.689179 0.300000 0.600000 0.000000
0.127740 -0.266183 0.874710 0.300000 0.600000 0.000000
0.065926 -0.104315 -0.568424 0.300000 0.000000 0.600000
-0.113126 -0.067786 0.531567 0.300000 0.600000 0.000000
0.151777 0.414622 -0.025672 0.000000 1.000000 0.000000
-0.149846 0.385553 -0.036271 0.000000 1.000000 0.000000
-0.090371 -0.153982 -0.311576 0.600000 0.300000 0.000000
0.272256 -0.115037 -0.568424 0.300000 0.000000 0.600000
0.152410 0.006000 -0.568424 0.300000 0.000000 0.600000
0.216965 0.049374 -0.080297 0.600000 0.300000 0.000000
-0.031544 0.182984 -0.568424 0.300000 0.000000 0.600000
0.027437 0.238017 -0.128836 0.300000 0.000000 0.600000
-0.213745 0.122496 -0.443040 0.300000 0.000000 0.600000
0.066396 0.391286 -0.015804 0.000000 1.000000 0.000000
-0.123717 -0.104308 0.861019 0.300000 0.600000 0.000000
0.135440 -0.334102 0.848397 0.300000 0.600000 0.000000
-0.302748 0.130204 -0.560265 0.300000 0.000000 0.600000
-0.039084 -0.129987 0.578474 0.300000 0.600000 0.000000
-0.088624 -0.296720 0.729157 0.300000 0.600000 0.000000
0.212226 -0.133051 -0.568424 0.300000 0.000000 0.600000
0.172984 0.029896 -0.333318 0.600000 0.300000 0.000000
-0.174406 -0.040439 -0.568424 0.300000 0.000000 0.600000
-0.126093 -0.154575 0.797134 0.300000 0.600000 0.000000
-0.295816 -0.046414 -0.443040 0.300000 0.000000 0.600000
-0.055368 0.112552 0.773640 0.300000 0.600000 0.000000
0.175393 0.106419 -0.443040 0.300000 0.000000 0.600000
-0.161340 -0.172787 -0.443040 0.300000 0.000000 0.600000
0.213178 0.438667 -0.010498 0.000000 1.000000 0.000000
0.049922 0.200958 -0.443040 0.300000 0.000000 0.600000
-0.294718 -0.076491 -0.443040 0.300000 0.000000 0.600000
-0.176867 0.266493 -0.534979 0.300000 0.000000 0.600000
0.138033 -0.009845 0.640559 0.300000 0.600000 0.000000
0.043765 0.234641 0.002994 0.000000 1.000000 0.000000
0.015926 0.077269 0.885944 0.300000 0.600000 0.000000
-0.054980 -0.128718 -0.568424 0.300000 0.000000 0.600000
0.065905 -0.182816 -0.229975 0.600000 0.300000 0.000000
0.042954 -0.178447 -0.300858 0.600000 0.300000 0.000000
-0.054432 -0.171937 0.262587 0.600000 0.300000 0.000000
0.020961 0.313679 -0.500439 0.300000 0.000000 0.600000
0.028778 0.075413 -0.568424 0.300000 0.000000 0.600000
-0.190839 0.106698 -0.080362 0.600000 0.300000 0.000000
0.113029 -0.201190 -0.122169 0.600000 0.300000 0.000000
-0.011330 0.203428 0.078595 0.300000 0.000000 0.600000
-0.183958 -0.039836 -0.210401 0.600000 0.300000 0.000000
0.010866 -0.212578 0.707297 0.300000 0.600000 0.000000
0.138946 -0.119319 -0.299354 0.600000 0.300000 0.000000
0.015418 0.358630 -0.162237 0.000000 1.000000 0.000000
0.116088 0.096837 -0.464484 0.600000 0.300000 0.000000
0.038022 -0.177986 -0.426104 0.600000 0.300000 0.000000
-0.029406 0.122926 0.425234 0.300000 0.600000 0.000000
0.217843 0.061431 -0.568424 0.300000 0.000000 0.600000
-0.110974 0.223439 -0.023623 0.300000 0.000000 0.600000
-0.033190 0.401938 -0.170966 0.000000 1.000000 0.000000
-0.150774 -0.101656 0.211986 0.600000 0.300000 0.000000
-0.125584 0.106304 0.243176 0.600000 0.300000 0.000000
-0.148742 -0.190830 -0.443040 0.300000 0.000000 0.600000
-0.121573 0.031171 0.790281 0.300000 0.600000 0.000000
-0.175693 -0.095061 -0.568424 0.300000 0.000000 0.600000
0.159097 0.139061 -0.105473 0.600000 0.300000 0.000000
-0.313576 -0.101743 -0.568424 0.300000 0.000000 0.600000
0.116864 0.294565 -0.483116 0.300000 0.000000 0.600000
-0.100755 -0.154123 0.211391 0.600000 0.300000 0.000000
0.219756 -0.037552 -0.105965 0.600000 0.300000 0.000000
-0.127658 0.103170 -0.288898 0.600000 0.300000 0.000000
0.180364 -0.139589 0.071118 0.600000 0.300000 0.000000
-0.325638 0.023975 -0.568424 0.300000 0.000000 0.600000
0.167155 -0.079178 0.222604 0.600000 0.300000 0.000000
-0.080049 -0.168151 -0.252561 0.600000 0.300000 0.000000
-0.087877 -0.279445 -0.568424 0.300000 0.000000 0.600000
0.149610 0.151322 -0.090811 0.600000 0.300000 0.000000
0.004131 0.127421 0.474156 0.300000 0.600000 0.000000
-0.114361 -0.175730 0.133466 0.600000 0.300000 0.000000
-0.174003 -0.047201 -0.240575 0.600000 0.300000 0.000000
-0.112600 -0.190705 -0.145772 0.600000 0.300000 0.000000
0.120288 -0.072336 0.523033 0.300000 0.600000 0.000000
-0.142030 0.044032 -0.443040 0.300000 0.000000 0.600000
0.142674 0.392054 0.017593 0.000000 1.000000 0.000000
-0.017918 0.387957 -0.101200 0.000000 1.000000 0.000000
0.138291 -0.274679 0.820807 0.300000 0.600000 0.000000
-0.268270 0.089343 -0.568424 0.300000 0.000000 0.600000
-0.066214 -0.087043 -0.464484 0.600000 0.300000 0.000000
0.078010 0.018186 -0.326731 0.600000 0.300000 0.000000
0.176060 0.058227 0.178002 0.600000 0.300000 0.000000
-0.328820 -0.085856 -0.453459 0.300000 0.000000 0.600000
-0.125248 0.027494 0.556674 0.300000 0.600000 0.000000
-0.181067 0.094099 0.104842 0.600000 0.300000 0.000000
-0.072442 -0.394144 0.723869 0.600000 0.000000 0.300000
0.124382 0.121023 0.215329 0.600000 0.300000 0.000000
-0.265489 -0.214176 -0.516249 0.300000 0.000000 0.600000
-0.105458 0.246514 -0.443040 0.300000 0.000000 0.600000
-0.215305 0.413589 -0.029448 0.000000 1.000000 0.000000
0.010211 -0.182092 -0.362675 0.600000 0.300000 0.000000
-0.002162 0.428421 0.074570 0.000000 1.000000 0.000000
0.072211 -0.394144 0.742317 0.600000 0.000000 0.300000
0.015542 0.166064 -0.256974 0.600000 0.300000 0.000000
0.130276 -0.317384 -0.455325 0.300000 0.000000 0.600000
0.141037 0.101177 0.222549 0.600000 0.300000 0.000000
0.253906 -0.236201 -0.499697 0.300000 0.000000 0.600000
0.040683 -0.212896 -0.163003 0.600000 0.300000 0.000000
0.001422 0.127479 0.493446 0.300000 0.600000 0.000000
0.040108 -0.133703 0.456089 0.300000 0.600000 0.000000
0.023380 0.404367 0.141730 0.000000 1.000000 0.000000
0.062856 0.202103 -0.068130 0.600000 0.300000 0.000000
-0.086756 -0.063729 -0.326731 0.600000 0.300000 0.000000
-0.117420 0.047178 0.675644 0.300000 0.600000 0.000000
0.202298 -0.061079 -0.568424 0.300000 0.000000 0.600000
0.116764 -0.082327 0.359994 0.300000 0.600000 0.000000
-0.210306 0.240813 -0.555885 0.300000 0.000000 0.600000
0.111434 0.234072 -0.568424 0.300000 0.000000 0.600000
-0.080504 0.140003 -0.451522 0.600000 0.300000 0.000000
0.104073 0.082510 0.459671 0.300000 0.600000 0.000000
0.163497 -0.012041 0.326454 0.300000 0.600000 0.000000
0.062511 0.397445 -0.179826 0.000000 1.000000 0.000000
-0.051060 0.238017 -0.060928 0.300000 0.000000 0.600000
-0.164791 -0.043199 -0.455236 0.600000 0.300000 0.000000
-0.128033 -0.096687 0.833922 0.300000 0.600000 0.000000
0.073066 -0.167560 0.273226 0.600000 0.300000 0.000000
-0.152038 0.062486 -0.368485 0.600000 0.300000 0.000000
0.330975 -0.015148 -0.568424 0.300000 0.000000 0.600000
-0.081781 -0.218709 -0.107830 0.600000 0.300000 0.000000
0.293807 0.003659 -0.443040 0.300000 0.000000 0.600000
-0.109209 -0.207922 0.066810 0.600000 0.300000 0.000000
-0.071775 0.238017 -0.096405 0.300000 0.000000 0.600000
0.008725 0.195615 0.105120 0.600000 0.300000 0.000000
-0.046264 -0.028998 -0.443040 0.300000 0.000000 0.600000
0.034578 0.158935 -0.376031 0.600000 0.300000 0.000000
-0.229993 0.225694 -0.457812 0.300000 0.000000 0.600000
-0.075486 0.173954 0.126160 0.600000 0.300000 0.000000
0.137620 -0.053335 0.829364 0.300000 0.600000 0.000000
-0.120139 0.414074 0.010607 0.000000 1.000000 0.000000
-0.113606 -0.219326 0.887265 0.300000 0.600000 0.000000
-0.084884 -0.204350 0.924163 0.300000 0.600000 0.000000
-0.148045 0.010046 0.331846 0.300000 0.600000 0.000000
0.072040 -0.000377 0.924135 0.300000 0.600000 0.000000
0.124013 -0.139150 0.761646 0.300000 0.600000 0.000000
0.008886 0.064002 -0.568424 0.300000 0.000000 0.600000
0.206006 0.051349 -0.130944 0.600000 0.300000 0.000000
0.155533 0.068493 0.304858 0.300000 0.600000 0.000000
-0.075789 -0.340880 0.931563 0.300000 0.600000 0.000000
0.012864 0.185575 -0.007290 0.300000 0.000000 0.600000
0.064585 -0.175079 -0.268975 0.600000 0.300000 0.000000
0.043789 -0.234456 0.045436 0.600000 0.300000 0.000000
-0.152710 -0.113717 -0.568424 0.300000 0.000000 0.600000
-0.067165 -0.040233 -0.464484 0.600000 0.300000 0.000000
-0.174261 0.124770 -0.097198 0.600000 0.300000 0.000000
0.019652 0.153374 -0.326731 0.600000 0.300000 0.000000
0.006899 -0.138608 0.759659 0.300000 0.600000 0.000000
-0.211967 -0.038432 0.095562 0.600000 0.300000 0.000000
-0.119026 0.111220 -0.362413 0.600000 0.300000 0.000000
0.113628 0.171195 0.079254 0.600000 0.300000 0.000000
0.083692 0.157549 -0.213849 0.600000 0.300000 0.000000
0.022324 -0.008277 -0.326731 0.600000 0.300000 0.000000
0.119962 -0.072772 0.432298 0.300000 0.600000 0.000000
-0.133129 -0.097258 0.319829 0.300000 0.600000 0.000000
-0.067276 0.145702 -0.362153 0.600000 0.300000 0.000000
-0.189398 0.050627 -0.568424 0.300000 0.000000 0.600000
0.044221 -0.126311 0.953472 0.300000 0.600000 0.000000
0.081352 -0.089056 0.934352 0.300000 0.600000 0.000000
-0.152074 -0.034078 0.325802 0.300000 0.600000 0.000000
0.158903 -0.088093 -0.405221 0.600000 0.300000 0.000000
0.214672 0.435831 -0.037137 0.000000 1.000000 0.000000
0.128752 -0.090687 0.773946 0.300000 0.600000 0.000000
0.091259 -0.203032 -0.568424 0.300000 0.000000 0.600000
0.029547 0.003346 -0.326731 0.600000 0.300000 0.000000
-0.075857 -0.025187 -0.443040 0.300000 0.000000 0.600000
0.160451 -0.125229 0.151101 0.600000 0.300000 0.000000
0.177326 -0.037206 0.238166 0.600000 0.300000 0.000000
0.004191 0.185575 0.059909 0.300000 0.000000 0.600000
0.001938 0.315786 -0.558684 0.300000 0.000000 0.600000
0.032044 0.201011 -0.113074 0.600000 0.300000 0.000000
0.184135 -0.081681 -0.568424 0.300000 0.000000 0.600000
0.028385 0.183067 -0.568424 0.300000 0.000000 0.600000
0.053211 0.401512 0.034788 0.000000 1.000000 0.000000
0.174713 -0.039962 -0.328063 0.600000 0.300000 0.000000
0.131489 -0.138989 0.202099 0.600000 0.300000 0.000000
-0.024055 0.238017 0.048461 0.300000 0.000000 0.600000
0.134176 0.035896 0.361517 0.300000 0.600000 0.000000
-0.009452 -0.191981 -0.233972 0.600000 0.300000 0.000000
-0.081203 -0.106661 0.483232 0.300000 0.600000 0.000000
-0.230949 -0.013662 0.017213 0.600000 0.300000 0.000000
-0.064204 -0.118745 0.550731 0.300000 0.600000 0.000000
-0.070819 -0.114115 0.507561 0.300000 0.600000 0.000000
0.082208 0.238017 -0.061362 0.300000 0.000000 0.600000
-0.037408 -0.121515 0.721925 0.300000 0.600000 0.000000
0.108691 -0.147102 -0.313901 0.600000 0.300000 0.000000
-0.128685 -0.098050 0.814974 0.300000 0.600000 0.000000
0.092005 0.304048 -0.456919 0.300000 0.000000 0.600000
-0.129396 -0.006714 0.457286 0.300000 0.600000 0.000000
-0.194014 -0.280679 -0.547706 0.300000 0.000000 0.600000
-0.042095 -0.090378 0.950749 0.300000 0.600000 0.000000
-0.005139 0.108057 -0.443040 0.300000 0.000000 0.600000
0.007180 0.364935 -0.090678 0.000000 1.000000 0.000000
-0.110468 0.062073 0.475632 0.300000 0.600000 0.000000
-0.154376 -0.287499 -0.443040 0.300000 0.000000 0.600000
0.239520 -0.236829 -0.443040 0.300000 0.000000 0.600000
-0.158575 -0.086013 -0.248734 0.600000 0.300000 0.000000
-0.013594 0.290613 -0.081444 0.000000 1.000000 0.000000
0.020476 -0.084770 0.958278 0.300000 0.600000 0.000000
-0.200125 0.077528 -0.112103 0.600000 0.300000 0.000000
0.028335 0.047454 -0.568424 0.300000 0.000000 0.600000
-0.224433 -0.258893 -0.456422 0.300000 0.000000 0.600000
0.071095 -0.297843 -0.443040 0.300000 0.000000 0.600000
0.097331 -0.278466 -0.443040 0.300000 0.000000 0.600000
0.024698 0.194623 0.102045 0.600000 0.300000 0.000000
0.109668 -0.357445 0.739313 0.300000 0.600000 0.000000
0.083593 0.100737 0.718978 0.300000 0.600000 0.000000
0.089923 0.126658 -0.568424 0.300000 0.000000 0.600000
0.041268 -0.192043 0.180216 0.600000 0.300000 0.000000
-0.047988 0.234641 -0.039346 0.000000 1.000000 0.000000
-0.088344 -0.192569 0.132048 0.600000 0.300000 0.000000
-0.171937 -0.163977 0.031994 0.600000 0.300000 0.000000
-0.057901 -0.122392 0.592083 0.300000 0.600000 0.000000
0.164609 -0.084730 -0.266101 0.600000 0.300000 0.000000
-0.047462 0.205207 -0.568424 0.300000 0.000000 0.600000
-0.149846 0.424348 -0.011614 0.000000 1.000000 0.000000
-0.177381 -0.122195 0.113972 0.600000 0.300000 0.000000
0.033924 0.452368 -0.041873 0.000000 1.000000 0.000000
-0.207150 0.420623 0.003119 0.000000 1.000000 0.000000
-0.135642 0.136368 -0.443040 0.300000 0.000000 0.600000
0.021048 0.179577 0.153703 0.600000 0.300000 0.000000
0.005913 0.222297 -0.141756 0.300000 0.000000 0.600000
0.080809 -0.203595 -0.155216 0.600000 0.300000 0.000000
0.184795 0.100105 -0.126588 0.600000 0.300000 0.000000
-0.071772 0.141604 -0.568424 0.300000 0.000000 0.600000
-0.097259 0.129554 -0.304348 0.600000 0.300000 0.000000
-0.281930 -0.194172 -0.472783 0.300000 0.000000 0.600000
0.033502 -0.151896 0.716346 0.300000 0.600000 0.000000
-0.144703 -0.098435 -0.455216 0.600000 0.300000 0.000000
-0.071622 -0.366195 0.934954 0.300000 0.600000 0.000000
0.182176 -0.088098 -0.443040 0.300000 0.000000 0.600000
0.011509 0.238017 -0.008054 0.300000 0.000000 0.600000
0.182342 -0.051545 0.195210 0.600000 0.300000 0.000000
0.064372 -0.302285 -0.568424 0.300000 0.000000 0.600000
0.069484 0.111015 0.771312 0.300000 0.600000 0.000000
-0.090154 0.088361 0.652284 0.300000 0.600000 0.000000
0.097585 0.090451 0.511189 0.300000 0.600000 0.000000
0.003978 0.444206 0.019623 0.000000 1.000000 0.000000
0.179480 -0.022499 -0.275674 0.600000 0.300000 0.000000
0.039820 -0.133746 0.419520 0.300000 0.600000 0.000000
-0.058160 -0.394144 0.919583 0.600000 0.000000 0.300000
-0.117381 -0.140956 0.877467 0.300000 0.600000 0.000000
0.216849 0.002300 -0.568424 0.300000 0.000000 0.600000
0.062107 0.359049 -0.016867 0.000000 1.000000 0.000000
0.000225 0.099251 -0.464484 0.600000 0.300000 0.000000
-0.128973 -0.011340 0.527089 0.300000 0.600000 0.000000
0.163141 0.088261 0.173486 0.600000 0.300000 0.000000
0.146904 0.046770 0.333421 0.300000 0.600000 0.000000
-0.046436 0.185575 -0.096709 0.300000 0.000000 0.600000
0.069355 -0.038064 0.938604 0.300000 0.600000 0.000000
0.268407 0.189159 -0.457997 0.300000 0.000000 0.600000
0.021814 0.185575 -0.018759 0.300000 0.000000 0.600000
0.091785 0.034505 -0.568424 0.300000 0.000000 0.600000
-0.011320 0.359750 0.129197 0.000000 1.000000 0.000000
0.150985 -0.181950 0.038997 0.600000 0.300000 0.000000
0.124268 0.138211 -0.193719 0.600000 0.300000 0.000000
0.155789 -0.106146 0.207680 0.600000 0.300000 0.000000
-0.004317 0.209341 0.049789 0.600000 0.300000 0.000000
0.005449 0.365617 0.095230 0.000000 1.000000 0.000000
-0.060035 -0.168579 -0.462004 0.600000 0.300000 0.000000
-0.082100 -0.159165 -0.453218 0.600000 0.300000 0.000000
-0.133019 0.423649 -0.000036 0.000000 1.000000 0.000000
0.137267 -0.016477 0.597895 0.300000 0.600000 0.000000
-0.119338 -0.207489 -0.443040 0.300000 0.000000 0.600000
0.332254 0.069797 -0.496059 0.300000 0.000000 0.600000
-0.126924 0.095322 0.308817 0.300000 0.600000 0.000000
-0.316655 -0.125383 -0.492219 0.300000 0.000000 0.600000
0.053279 0.425768 -0.181060 0.000000 1.000000 0.000000
0.285853 -0.194521 -0.477489 0.300000 0.000000 0.600000
-0.337971 -0.026420 -0.454593 0.300000 0.000000 0.600000
0.016843 -0.030449 -0.568424 0.300000 0.000000 0.600000
0.100393 -0.159692 -0.259330 0.600000 0.300000 0.000000
-0.021190 0.124139 0.568470 0.300000 0.600000 0.000000
0.065272 -0.208157 0.944964 0.300000 0.600000 0.000000
0.129238 -0.180649 0.775207 0.300000 0.600000 0.000000
0.271690 0.160276 -0.443040 0.300000 0.000000 0.600000
-0.268062 0.129303 -0.443040 0.300000 0.000000 0.600000
-0.089351 -0.354695 0.920528 0.300000 0.600000 0.000000
0.223446 -0.069233 -0.003874 0.600000 0.300000 0.000000
-0.047300 0.297398 -0.006453 0.000000 1.000000 0.000000
-0.125702 0.025276 0.659208 0.300000 0.600000 0.000000
-0.026855 0.378685 0.160602 0.000000 1.000000 0.000000
0.233272 -0.067663 -0.443040 0.300000 0.000000 0.600000
0.038185 0.161025 -0.277170 0.600000 0.300000 0.000000
0.308930 -0.155783 -0.551638 0.300000 0.000000 0.600000
-0.059540 -0.215821 0.942993 0.300000 0.600000 0.000000
-0.145559 0.155110 0.049752 0.600000 0.300000 0.000000
0.080579 -0.115374 -0.326731 0.600000 0.300000 0.000000
0.012317 -0.197831 -0.216545 0.600000 0.300000 0.000000
-0.064460 0.057140 0.882344 0.300000 0.600000 0.000000
-0.189013 -0.133169 0.064144 0.600000 0.300000 0.000000
-0.027809 -0.281903 -0.568424 0.300000 0.000000 0.600000
0.033147 -0.263087 0.704311 0.300000 0.600000 0.000000
0.053060 0.156723 -0.285340 0.600000 0.300000 0.000000
-0.193106 -0.027938 -0.568424 0.300000 0.000000 0.600000
0.080143 -0.221068 0.060021 0.600000 0.300000 0.000000
0.171134 -0.166640 0.003625 0.600000 0.300000 0.000000
0.181464 -0.082921 -0.198441 0.600000 0.300000 0.000000
0.019071 0.204607 0.062130 0.600000 0.300000 0.000000
0.082560 -0.163829 0.933435 0.300000 0.600000 0.000000
0.311701 -0.148994 -0.452594 0.300000 0.000000 0.600000
-0.067240 0.025316 -0.443040 0.300000 0.000000 0.600000
0.054266 0.440142 -0.003829 0.000000 1.000000 0.000000
-0.265235 0.149379 -0.443040 0.300000 0.000000 0.600000
0.153135 0.152390 -0.568424 0.300000 0.000000 0.600000
0.343740 -0.012987 -0.472325 0.300000 0.000000 0.600000
-0.137045 -0.165796 -0.443040 0.300000 0.000000 0.600000
-0.116751 0.048863 0.428764 0.300000 0.600000 0.000000
0.279980 -0.202183 -0.534992 0.300000 0.000000 0.600000
-0.069154 0.144893 -0.334480 0.600000 0.300000 0.000000
0.128974 -0.154391 0.774523 0.300000 0.600000 0.000000
0.139339 -0.172750 -0.568424 0.300000 0.000000 0.600000
-0.128978 -0.375705 0.825472 0.300000 0.600000 0.000000
0.134802 0.023373 0.659886 0.300000 0.600000 0.000000
-0.165403 0.021360 -0.442282 0.600000 0.300000 0.000000
0.088036 0.238017 -0.034045 0.300000 0.000000 0.600000
-0.132004 -0.076002 -0.464484 0.600000 0.300000 0.000000
-0.178996 0.360997 -0.053503 0.000000 1.000000 0.000000
-0.094295 0.083733 0.766534 0.300000 0.600000 0.000000
0.095769 -0.172154 0.180918 0.600000 0.300000 0.000000
0.020060 0.125610 0.616564 0.300000 0.600000 0.000000
-0.087201 0.145767 0.201088 0.600000 0.300000 0.000000
-0.093113 -0.323793 -0.443040 0.300000 0.000000 0.600000
-0.020886 0.217746 -0.443040 0.300000 0.000000 0.600000
-0.217981 0.234918 -0.505383 0.300000 0.000000 0.600000
0.088298 -0.107712 0.538473 0.300000 0.600000 0.000000
0.024123 -0.282061 -0.443040 0.300000 0.000000 0.600000
0.109497 0.185507 -0.001276 0.600000 0.300000 0.000000
0.262101 -0.182203 -0.443040 0.300000 0.000000 0.600000
0.113142 0.069057 0.785174 0.300000 0.600000 0.000000
-0.051217 0.006744 -0.326731 0.600000 0.300000 0.000000
-0.020825 0.427655 0.159618 0.000000 1.000000 0.000000
0.126792 0.046774 0.520621 0.300000 0.600000 0.000000
-0.160789 -0.100399 -0.219714 0.600000 0.300000 0.000000
-0.293704 -0.114745 -0.568424 0.300000 0.000000 0.600000
-0.281133 -0.186722 -0.443040 0.300000 0.000000 0.600000
0.062346 0.113810 0.610432 0.300000 0.600000 0.000000
0.007823 0.441885 0.160469 0.000000 1.000000 0.000000
-0.108865 -0.123151 -0.443040 0.300000 0.000000 0.600000
-0.129965 0.099126 0.261049 0.600000 0.300000 0.000000
-0.155440 -0.044782 -0.568424 0.300000 0.000000 0.600000
-0.128095 -0.017195 0.617101 0.300000 0.600000 0.000000
0.027587 -0.208376 -0.443040 0.300000 0.000000 0.600000
-0.014351 0.416856 0.124875 0.000000 1.000000 0.000000
-0.099516 -0.084365 0.740104 0.300000 0.600000 0.000000
-0.177484 0.077085 -0.443040 0.300000 0.000000 0.600000
0.080956 0.225055 -0.443040 0.300000 0.000000 0.600000
-0.197949 -0.109733 -0.568424 0.300000 0.000000 0.600000
-0.025290 0.372044 -0.205225 0.000000 1.000000 0.000000
0.118760 -0.388687 0.894901 0.300000 0.600000 0.000000
-0.063810 -0.259663 0.718336 0.300000 0.600000 0.000000
-0.111519 -0.372843 0.754896 0.300000 0.600000 0.000000
-0.173913 0.006655 -0.251860 0.600000 0.300000 0.000000
-0.081548 -0.091674 -0.326731 0.600000 0.300000 0.000000
0.101194 -0.275603 0.917548 0.300000 0.600000 0.000000
-0.090622 0.130241 0.305594 0.300000 0.600000 0.000000
-0.177035 0.361371 0.017309 0.000000 1.000000 0.000000
-0.023206 -0.219572 0.110493 0.600000 0.300000 0.000000
0.207879 0.195916 -0.443040 0.300000 0.000000 0.600000
-0.091415 0.191847 -0.066687 0.600000 0.300000 0.000000
-0.104190 0.070481 0.690352 0.300000 0.600000 0.000000
-0.074335 0.238017 -0.111443 0.300000 0.000000 0.600000
0.166658 0.233997 -0.568424 0.300000 0.000000 0.600000
0.186842 -0.112460 0.108441 0.600000 0.300000 0.000000
-0.033519 -0.220531 -0.568424 0.300000 0.000000 0.600000
0.216140 -0.098510 -0.443040 0.300000 0.000000 0.600000
0.020589 0.433116 0.119349 0.000000 1.000000 0.000000
0.010794 0.357156 -0.214349 0.000000 1.000000 0.000000
0.113146 -0.324571 -0.528356 0.300000 0.000000 0.600000
0.162103 0.018394 -0.326731 0.600000 0.300000 0.000000
-0.248868 -0.234400 -0.443717 0.300000 0.000000 0.600000
-0.052295 0.417767 -0.045461 0.000000 1.000000 0.000000
-0.206071 -0.022043 -0.159155 0.600000 0.300000 0.000000
-0.120968 0.153847 0.113455 0.600000 0.300000 0.000000
0.056405 0.154720 -0.302867 0.600000 0.300000 0.000000
0.075207 -0.148738 0.939016 0.300000 0.600000 0.000000
0.033160 -0.340635 -0.499610 0.300000 0.000000 0.600000
0.007507 0.432411 -0.022825 0.000000 1.000000 0.000000
0.222990 -0.033260 -0.090994 0.600000 0.300000 0.000000
-0.134424 -0.220443 -0.443040 0.300000 0.000000 0.600000
-0.122130 -0.126758 -0.387255 0.600000 0.300000 0.000000
-0.294292 -0.175184 -0.543375 0.300000 0.000000 0.600000
0.210058 0.058482 -0.099998 0.600000 0.300000 0.000000
-0.067782 0.105993 0.670483 0.300000 0.600000 0.000000
-0.321781 0.046650 -0.443040 0.300000 0.000000 0.600000
-0.068449 0.130037 -0.443040 0.300000 0.000000 0.600000
0.077528 -0.334254 -0.475906 0.300000 0.000000 0.600000
0.138528 -0.023780 0.804862 0.300000 0.600000 0.000000
0.293796 0.101780 -0.443040 0.300000 0.000000 0.600000
0.003268 0.127519 0.587777 0.300000 0.600000 0.000000
0.137586 -0.035851 -0.568424 0.300000 0.000000 0.600000
0.076641 0.196521 -0.069581 0.600000 0.300000 0.000000
0.099090 -0.394144 0.783978 0.600000 0.000000 0.300000
0.026417 0.124887 0.451427 0.300000 0.600000 0.000000
-0.055243 -0.202649 0.944904 0.300000 0.600000 0.000000
0.000627 0.199608 0.093676 0.600000 0.300000 0.000000
-0.147783 0.279978 -0.539117 0.300000 0.000000 0.600000
-0.019151 -0.180195 0.957119 0.300000 0.600000 0.000000
0.054143 0.117719 -0.443040 0.300000 0.000000 0.600000
-0.104350 -0.081563 0.564809 0.300000 0.600000 0.000000
0.002398 0.361420 -0.160370 0.000000 1.000000 0.000000
-0.206216 -0.008314 -0.568424 0.300000 0.000000 0.600000
0.053270 -0.128440 0.395108 0.300000 0.600000 0.000000
-0.095360 0.238017 -0.057301 0.300000 0.000000 0.600000
0.207629 -0.161680 -0.568424 0.300000 0.000000 0.600000
0.223311 0.029264 -0.052155 0.600000 0.300000 0.000000
0.165583 0.051978 0.284133 0.600000 0.300000 0.000000
0.136574 -0.022477 0.447546 0.300000 0.600000 0.000000
0.013046 0.218326 0.078191 0.300000 0.000000 0.600000
-0.102838 -0.218460 -0.067531 0.600000 0.300000 0.000000
-0.168580 -0.002692 -0.318015 0.600000 0.300000 0.000000
-0.027137 -0.228961 0.081095 0.600000 0.300000 0.000000
-0.092148 -0.298323 0.918065 0.300000 0.600000 0.000000
-0.134801 0.047525 0.336202 0.300000 0.600000 0.000000
0.066153 -0.233771 0.017308 0.600000 0.300000 0.000000
0.002464 0.366794 0.135421 0.000000 1.000000 0.000000
0.092498 0.303860 -0.506078 0.300000 0.000000 0.600000
0.048328 -0.130569 0.761664 0.300000 0.600000 0.000000
-0.016223 -0.183999 -0.269840 0.600000 0.300000 0.000000
-0.052243 -0.293125 -0.568424 0.300000 0.000000 0.600000
0.111181 -0.338238 0.904672 0.300000 0.600000 0.000000
0.019537 -0.168583 -0.464484 0.600000 0.300000 0.000000
-0.244547 -0.239658 -0.470655 0.300000 0.000000 0.600000
-0.005230 0.426182 -0.114067 0.000000 1.000000 0.000000
0.034330 0.185575 -0.041408 0.300000 0.000000 0.600000
-0.069623 0.104543 0.398205 0.300000 0.600000 0.000000
0.163657 -0.303377 -0.557716 0.300000 0.000000 0.600000
-0.064023 0.396923 0.017388 0.000000 1.000000 0.000000
0.173039 0.030721 0.280765 0.600000 0.300000 0.000000
-0.118160 -0.048417 0.871536 0.300000 0.600000 0.000000
-0.129430 -0.007009 0.625549 0.300000 0.600000 0.000000
0.157588 0.070132 -0.391890 0.600000 0.300000 0.000000
-0.018661 0.187326 -0.169451 0.600000 0.300000 0.000000
-0.173478 0.251576 -0.443040 0.300000 0.000000 0.600000
0.137343 -0.015817 0.755389 0.300000 0.600000 0.000000
0.071299 -0.120674 0.602699 0.300000 0.600000 0.000000
-0.223060 -0.078851 -0.048966 0.600000 0.300000 0.000000
0.162987 -0.077824 -0.426053 0.600000 0.300000 0.000000
0.012343 0.433016 -0.142618 0.000000 1.000000 0.000000
-0.124766 0.162980 0.081638 0.600000 0.300000 0.000000
-0.000663 -0.122745 -0.326731 0.600000 0.300000 0.000000
0.012805 0.347975 -0.082960 0.000000 1.000000 0.000000
0.129606 -0.130664 -0.312997 0.600000 0.300000 0.000000
0.051609 0.118014 0.506382 0.300000 0.600000 0.000000
-0.107298 -0.278501 0.748269 0.300000 0.600000 0.000000
0.035233 0.364379 -0.162450 0.000000 1.000000 0.000000
-0.235179 -0.251056 -0.566940 0.300000 0.000000 0.600000
0.094784 -0.105126 0.741999 0.300000 0.600000 0.000000
-0.048835 0.162994 -0.239191 0.600000 0.300000 0.000000
0.323654 -0.119710 -0.463866 0.300000 0.000000 0.600000
-0.075278 -0.111016 0.531647 0.300000 0.600000 0.000000
-0.168230 -0.003125 -0.341475 0.600000 0.300000 0.000000
0.292835 0.013283 -0.568424 0.300000 0.000000 0.600000
-0.077368 -0.394144 0.792907 0.600000 0.000000 0.300000
-0.105556 -0.342257 0.746023 0.300000 0.600000 0.000000
0.073115 -0.232020 -0.008541 0.600000 0.300000 0.000000
-0.116651 -0.312600 0.767007 0.300000 0.600000 0.000000
-0.308557 -0.020088 -0.568424 0.300000 0.000000 0.600000
0.001631 -0.138009 0.714360 0.300000 0.600000 0.000000
-0.005384 0.279067 -0.083181 0.000000 1.000000 0.000000
0.099007 -0.153850 0.286956 0.300000 0.600000 0.000000
0.136462 -0.023452 0.509374 0.300000 0.600000 0.000000
-0.112399 -0.069449 0.712479 0.300000 0.600000 0.000000
-0.170299 0.016190 0.227588 0.600000 0.300000 0.000000
-0.189895 0.078471 0.102903 0.600000 0.300000 0.000000
0.188355 -0.020888 -0.224448 0.600000 0.300000 0.000000
-0.127220 -0.268250 0.804889 0.300000 0.600000 0.000000
0.198795 0.100073 -0.019837 0.600000 0.300000 0.000000
-0.103073 0.216142 -0.072485 0.300000 0.000000 0.600000
0.226501 -0.044964 -0.029937 0.600000 0.300000 0.000000
-0.012339 0.102619 0.847854 0.300000 0.600000 0.000000
0.153052 -0.307826 -0.443156 0.300000 0.000000 0.600000
-0.008126 -0.136899 0.627792 0.300000 0.600000 0.000000
-0.050428 0.152959 -0.421631 0.600000 0.300000 0.000000
0.243901 0.034195 -0.443040 0.300000 0.000000 0.600000
-0.244914 -0.239211 -0.523832 0.300000 0.000000 0.600000
0.084334 -0.168801 0.213693 0.600000 0.300000 0.000000
-0.111068 -0.265239 -0.443040 0.300000 0.000000 0.600000
0.034097 -0.194031 -0.568424 0.300000 0.000000 0.600000
-0.048072 0.166470 -0.225818 0.600000 0.300000 0.000000
0.160753 0.061196 0.293195 0.300000 0.600000 0.000000
0.029742 -0.135234 0.501431 0.300000 0.600000 0.000000
0.133485 -0.195402 -0.081392 0.600000 0.300000 0.000000
-0.058584 -0.071881 0.942985 0.300000 0.600000 0.000000
0.109678 0.213542 -0.024055 0.300000 0.000000 0.600000
0.177189 0.008880 -0.298989 0.600000 0.300000 0.000000
0.195787 0.064383 0.106085 0.600000 0.300000 0.000000
-0.111812 -0.394144 0.793009 0.600000 0.000000 0.300000
0.080927 0.132177 -0.326731 0.600000 0.300000 0.000000
0.080465 -0.295190 0.719489 0.300000 0.600000 0.000000
0.340973 0.013169 -0.479752 0.300000 0.000000 0.600000
-0.200085 0.101506 -0.019869 0.600000 0.300000 0.000000
0.248446 0.128042 -0.568424 0.300000 0.000000 0.600000
-0.134366 0.144296 -0.151827 0.600000 0.300000 0.000000
0.143749 -0.110998 -0.403462 0.600000 0.300000 0.000000
-0.011960 -0.136463 0.685144 0.300000 0.600000 0.000000
-0.111552 0.197863 -0.034619 0.300000 0.000000 0.600000
-0.170178 -0.029377 0.234721 0.600000 0.300000 0.000000
0.133939 -0.190776 -0.101653 0.600000 0.300000 0.000000
0.137809 -0.118953 -0.427563 0.600000 0.300000 0.000000
-0.330306 -0.027524 -0.568424 0.300000 0.000000 0.600000
0.035831 -0.384185 0.956476 0.300000 0.600000 0.000000
0.237232 -0.252022 -0.528931 0.300000 0.000000 0.600000
0.226508 -0.019295 -0.075832 0.600000 0.300000 0.000000
-0.264542 -0.215329 -0.564462 0.300000 0.000000 0.600000
-0.335854 0.007376 -0.451861 0.300000 0.000000 0.600000
0.239772 -0.151019 -0.443040 0.300000 0.000000 0.600000
0.013496 -0.062393 0.958054 0.300000 0.600000 0.000000
0.035805 -0.205846 0.142904 0.600000 0.300000 0.000000
0.168311 0.395045 0.012699 0.000000 1.000000 0.000000
0.312616 0.012664 -0.568424 0.300000 0.000000 0.600000
-0.029826 0.158029 -0.336085 0.600000 0.300000 0.000000
-0.060565 0.110313 0.539902 0.300000 0.600000 0.000000
0.011913 0.264836 -0.443040 0.300000 0.000000 0.600000
0.170691 -0.058452 -0.426377 0.600000 0.300000 0.000000
0.185636 0.106808 -0.102665 0.600000 0.300000 0.000000
-0.070537 -0.192590 -0.189443 0.600000 0.300000 0.000000
-0.084215 0.428268 -0.022404 0.000000 1.000000 0.000000
0.016486 0.207793 -0.083566 0.600000 0.300000 0.000000
-0.008943 0.238017 -0.007505 0.300000 0.000000 0.600000
0.132264 -0.119615 -0.326731 0.600000 0.300000 0.000000
0.138581 -0.123207 0.823399 0.300000 0.600000 0.000000
0.242161 0.041884 -0.568424 0.300000 0.000000 0.600000
0.047639 0.177643 -0.443040 0.300000 0.000000 0.600000
0.074960 0.185575 -0.093435 0.300000 0.000000 0.600000
-0.002090 -0.198041 0.174852 0.600000 0.300000 0.000000
0.026416 0.127411 0.751366 0.300000 0.600000 0.000000
0.051778 0.193601 -0.129036 0.300000 0.000000 0.600000
-0.203632 0.046611 -0.140524 0.600000 0.300000 0.000000
0.168311 0.404554 -0.036290 0.000000 1.000000 0.000000
0.086937 -0.330768 0.930114 0.300000 0.600000 0.000000
-0.120600 0.043790 -0.464484 0.600000 0.300000 0.000000
0.194176 -0.104984 -0.134917 0.600000 0.300000 0.000000
-0.016299 0.238017 -0.087435 0.300000 0.000000 0.600000
-0.035031 0.339269 0.012046 0.000000 1.000000 0.000000
0.015159 0.363886 0.022905 0.000000 1.000000 0.000000
-0.326169 0.072829 -0.447060 0.300000 0.000000 0.600000
0.043514 -0.332017 0.698509 0.300000 0.600000 0.000000
0.201894 -0.124650 -0.568424 0.300000 0.000000 0.600000
-0.087281 -0.151579 -0.568424 0.300000 0.000000 0.600000
0.026978 0.170079 0.187549 0.600000 0.300000 0.000000
-0.135880 0.007763 -0.326731 0.600000 0.300000 0.000000
0.060830 0.431770 -0.033082 0.000000 1.000000 0.000000
0.001586 0.123085 -0.443040 0.300000 0.000000 0.600000
-0.080702 -0.334213 -0.469221 0.300000 0.000000 0.600000
0.084758 0.099881 0.451904 0.300000 0.600000 0.000000
-0.047570 0.097383 0.836587 0.300000 0.600000 0.000000
0.044379 0.157821 -0.450416 0.600000 0.300000 0.000000
0.021193 0.433040 -0.017321 0.000000 1.000000 0.000000
0.274426 0.181835 -0.488935 0.300000 0.000000 0.600000
0.217054 -0.076152 0.044431 0.600000 0.300000 0.000000
-0.113296 0.117542 0.251238 0.600000 0.300000 0.000000
-0.070409 -0.279946 -0.443040 0.300000 0.000000 0.600000
-0.122646 -0.046024 0.645920 0.300000 0.600000 0.000000
0.242625 -0.038551 -0.443040 0.300000 0.000000 0.600000
0.206850 0.010919 -0.156158 0.600000 0.300000 0.000000
-0.165373 -0.020113 0.305343 0.300000 0.600000 0.000000
-0.225247 -0.018080 -0.099887 0.600000 0.300000 0.000000
0.078748 0.085414 -0.464484 0.600000 0.300000 0.000000
0.074418 0.172585 -0.175874 0.600000 0.300000 0.000000
-0.206501 0.085904 -0.056381 0.600000 0.300000 0.000000
0.098526 0.360765 -0.007426 0.000000 1.000000 0.000000
0.145414 -0.109603 -0.314638 0.600000 0.300000 0.000000
-0.150427 0.068526 -0.310164 0.600000 0.300000 0.000000
-0.181106 -0.158017 -0.017223 0.600000 0.300000 0.000000
0.216855 0.054670 0.022882 0.600000 0.300000 0.000000
0.021536 -0.219763 0.111566 0.600000 0.300000 0.000000
-0.085940 -0.394144 0.853532 0.600000 0.000000 0.300000
-0.083142 -0.327667 0.725975 0.300000 0.600000 0.000000
0.104740 -0.093155 0.726663 0.300000 0.600000 0.000000
-0.217299 -0.094061 -0.031677 0.600000 0.300000 0.000000
-0.134767 -0.110973 -0.435154 0.600000 0.300000 0.000000
0.087318 0.097999 0.473841 0.300000 0.600000 0.000000
0.037950 0.147547 -0.326731 0.600000 0.300000 0.000000
0.225399 0.234108 -0.517055 0.300000 0.000000 0.600000
-0.093764 -0.078424 0.915782 0.300000 0.600000 0.000000
0.061976 -0.124690 0.759072 0.300000 0.600000 0.000000
0.189134 -0.220896 -0.568424 0.300000 0.000000 0.600000
-0.071798 -0.164406 0.276937 0.600000 0.300000 0.000000
0.159696 -0.291107 -0.443040 0.300000 0.000000 0.600000
0.020669 0.185575 -0.099345 0.300000 0.000000 0.600000
0.127424 -0.190515 0.079312 0.600000 0.300000 0.000000
0.060299 0.170455 -0.200438 0.600000 0.300000 0.000000
-0.000994 0.008830 -0.464484 0.600000 0.300000 0.000000
0.053148 -0.177524 0.244513 0.600000 0.300000 0.000000
-0.064901 -0.168823 -0.284425 0.600000 0.300000 0.000000
0.110493 0.389668 -0.055096 0.000000 1.000000 0.000000
0.088987 -0.332606 -0.552170 0.300000 0.000000 0.600000
-0.077588 -0.109318 0.417990 0.300000 0.600000 0.000000
0.266444 -0.203409 -0.443040 0.300000 0.000000 0.600000
0.061381 0.423229 0.000540 0.000000 1.000000 0.000000
-0.106098 0.176031 0.078199 0.600000 0.300000 0.000000
-0.106252 -0.394144 0.886409 0.600000 0.000000 0.300000
0.136959 -0.019142 0.490954 0.300000 0.600000 0.000000
-0.019140 0.130946 -0.326731 0.600000 0.300000 0.000000
-0.033066 0.092479 -0.443040 0.300000 0.000000 0.600000
0.109679 -0.082880 0.733395 0.300000 0.600000 0.000000
-0.095263 0.082437 0.723115 0.300000 0.600000 0.000000
-0.125693 -0.021863 0.838069 0.300000 0.600000 0.000000
0.153336 0.280654 -0.545683 0.300000 0.000000 0.600000
0.178297 -0.013638 -0.312698 0.600000 0.300000 0.000000
-0.089406 0.088951 0.743574 0.300000 0.600000 0.000000
0.263501 0.004639 -0.568424 0.300000 0.000000 0.600000
-0.227903 -0.144309 -0.443040 0.300000 0.000000 0.600000
-0.165104 -0.175930 0.009818 0.600000 0.300000 0.000000
-0.227741 0.068799 -0.443040 0.300000 0.000000 0.600000
0.248174 0.190878 -0.568424 0.300000 0.000000 0.600000
-0.130392 0.376561 0.005320 0.000000 1.000000 0.000000
0.174261 0.042113 0.222468 0.600000 0.300000 0.000000
0.002409 -0.009140 0.947970 0.300000 0.600000 0.000000
0.013117 0.433113 -0.086596 0.000000 1.000000 0.000000
0.133279 -0.331021 0.861643 0.300000 0.600000 0.000000
0.034150 -0.069354 -0.443040 0.300000 0.000000 0.600000
0.047860 -0.153403 -0.326731 0.600000 0.300000 0.000000
0.046903 0.418318 0.130910 0.000000 1.000000 0.000000
0.163842 0.373878 0.012953 0.000000 1.000000 0.000000
0.208012 -0.274463 -0.509404 0.300000 0.000000 0.600000
-0.097947 -0.222509 -0.003322 0.600000 0.300000 0.000000
0.035317 0.368415 -0.130569 0.000000 1.000000 0.000000
0.210803 0.051850 0.069412 0.600000 0.300000 0.000000
0.184601 -0.235830 -0.443040 0.300000 0.000000 0.600000
-0.082086 0.183069 -0.130677 0.600000 0.300000 0.000000
0.027988 0.124709 0.679387 0.300000 0.600000 0.000000
-0.170896 0.059991 -0.213196 0.600000 0.300000 0.000000
-0.098356 -0.148170 0.736741 0.300000 0.600000 0.000000
-0.033426 0.386078 -0.175209 0.000000 1.000000 0.000000
-0.108567 0.215423 -0.005342 0.300000 0.000000 0.600000
-0.085923 -0.376504 0.923318 0.300000 0.600000 0.000000
-0.060242 -0.238121 -0.020254 0.600000 0.300000 0.000000
-0.173140 0.146628 -0.568424 0.300000 0.000000 0.600000
-0.234005 0.096273 -0.443040 0.300000 0.000000 0.600000
-0.118907 0.135329 -0.568424 0.300000 0.000000 0.600000
0.048797 0.185575 -0.023761 0.300000 0.000000 0.600000
0.188006 -0.145296 -0.014462 0.600000 0.300000 0.000000
0.316583 -0.137034 -0.523727 0.300000 0.000000 0.600000
0.087311 -0.096956 -0.568424 0.300000 0.000000 0.600000
-0.008368 0.447445 0.009071 0.000000 1.000000 0.000000
0.119199 0.032427 -0.464484 0.600000 0.300000 0.000000
-0.105578 0.130741 0.206594 0.600000 0.300000 0.000000
-0.182075 -0.068126 -0.200700 0.600000 0.300000 0.000000
0.008191 0.364761 -0.008415 0.000000 1.000000 0.000000
0.134182 0.027506 0.383552 0.300000 0.600000 0.000000
0.257714 0.093142 -0.568424 0.300000 0.000000 0.600000
-0.017268 0.124719 0.392480 0.300000 0.600000 0.000000
0.127857 -0.376399 0.874435 0.300000 0.600000 0.000000
-0.029863 -0.177548 -0.568424 0.300000 0.000000 0.600000
