ply
format ascii 1.0
element vertex 1278
property float x
property float y
property float z
property uchar red
property uchar green
property uchar blue
end_header
-0.034371 -0.219131 -0.148959 153 76 0
-0.151553 -0.010544 0.285460 76 153 0
-0.117474 -0.057847 0.521693 76 153 0
-0.036050 0.185575 -0.114231 76 0 153
0.151449 0.379677 -0.052220 0 255 0
0.210562 -0.063382 -0.568424 76 0 153
0.129194 -0.051896 0.619413 76 153 0
0.076972 -0.394144 0.887600 153 0 76
-0.065593 0.186868 0.100659 153 76 0
-0.035954 0.361367 -0.005903 0 255 0
0.019778 -0.160320 -0.464484 153 76 0
-0.137767 0.128514 -0.182342 153 76 0
0.039394 -0.131644 -0.568424 76 0 153
-0.099428 -0.130716 0.907999 76 153 0
0.138759 -0.000188 0.746490 76 153 0
-0.165472 0.108646 -0.156765 153 76 0
0.119651 0.063053 0.639543 76 153 0
0.032267 0.367186 -0.046498 0 255 0
-0.152912 -0.088493 -0.274491 153 76 0
-0.125805 -0.032463 0.552132 76 153 0
0.291681 0.075994 -0.568424 76 0 153
0.009676 0.208643 0.042501 153 76 0
0.155491 -0.124465 -0.206163 153 76 0
0.105020 -0.222301 -0.443040 76 0 153
0.178232 -0.009484 -0.434901 153 76 0
-0.047178 0.100614 0.370249 76 153 0
0.044278 0.140695 0.285460 76 153 0
0.048124 -0.055317 -0.443040 76 0 153
-0.035588 -0.160124 -0.464484 153 76 0
0.048665 -0.295059 -0.443040 76 0 153
-0.196573 -0.028251 -0.181033 153 76 0
0.135111 -0.273417 0.792378 76 153 0
0.178772 -0.104257 -0.181685 153 76 0
-0.039307 0.014623 0.370249 76 153 0
-0.146863 0.237101 -0.443040 76 0 153
-0.117753 -0.005217 0.285460 76 153 0
-0.124299 0.029881 0.566927 76 153 0
-0.222704 -0.064841 0.034252 153 76 0
-0.078025 0.098996 0.370497 76 153 0
0.224902 0.013115 -0.065960 153 76 0
-0.022747 -0.102513 -0.326731 153 76 0
-0.224970 -0.177935 -0.568424 76 0 153
-0.037042 -0.177425 -0.392613 153 76 0
0.065347 0.140747 0.320741 76 153 0
-0.050725 0.346349 -0.017033 0 255 0
-0.032603 0.238017 -0.091149 76 0 153
-0.146540 -0.096668 -0.306177 153 76 0
-0.010165 0.289263 0.025890 0 255 0
0.000877 -0.353465 0.690816 76 153 0
-0.072963 -0.160261 -0.568424 76 0 153
0.052476 -0.025314 -0.568424 76 0 153
-0.038616 -0.013363 -0.464484 153 76 0
-0.017203 0.410942 0.133155 0 255 0
0.269771 -0.165304 -0.568424 76 0 153
0.252658 0.039867 -0.443040 76 0 153
-0.079438 0.017933 0.370249 76 153 0
0.054035 0.117065 0.407748 76 153 0
-0.085934 -0.264229 0.732148 76 153 0
-0.030889 0.185575 0.034380 76 0 153
0.082877 -0.027117 0.925555 76 153 0
-0.002771 -0.173834 -0.326731 153 76 0
0.160684 0.063057 -0.351789 153 76 0
0.194340 0.087510 -0.113900 153 76 0
-0.123769 -0.301270 -0.568424 76 0 153
-0.071593 0.003513 0.285460 76 153 0
-0.212029 0.020874 0.091334 153 76 0
0.052369 0.101578 0.832001 76 153 0
0.015506 0.395090 0.119441 0 255 0
0.189107 0.260099 -0.496916 76 0 153
-0.130707 -0.315139 -0.446061 76 0 153
0.067298 -0.081133 0.285460 76 153 0
0.063088 -0.124210 0.682558 76 153 0
0.185065 -0.009657 -0.246261 153 76 0
0.026251 0.432407 -0.131540 0 255 0
-0.015068 -0.136110 0.467193 76 153 0
-0.285472 0.016765 -0.443040 76 0 153
-0.090272 -0.153156 -0.453553 153 76 0
0.198701 0.099831 -0.014883 153 76 0
0.046134 0.377984 -0.071420 0 255 0
0.053917 0.378642 -0.169392 0 255 0
-0.024121 0.410266 -0.045184 0 255 0
0.221762 -0.210867 -0.568424 76 0 153
-0.073085 0.026474 0.899581 76 153 0
-0.080727 -0.107009 0.381596 76 153 0
-0.196758 -0.261285 -0.568424 76 0 153
0.100023 0.300989 -0.535022 76 0 153
0.186172 -0.036985 0.185036 153 76 0
-0.062840 0.109318 -0.568424 76 0 153
0.231033 -0.050455 -0.443040 76 0 153
0.029140 0.124580 0.458456 76 153 0
0.002169 -0.138068 0.763946 76 153 0
0.071352 -0.048571 -0.568424 76 0 153
0.155968 -0.109414 -0.568424 76 0 153
0.137167 -0.017349 0.455967 76 153 0
0.119166 0.126830 -0.246156 153 76 0
-0.093015 -0.073608 0.370249 76 153 0
-0.087776 0.426950 -0.029859 0 255 0
0.137206 0.042209 -0.326731 153 76 0
0.107517 0.185645 0.014759 76 0 153
0.255494 -0.088330 -0.568424 76 0 153
0.207415 -0.106991 0.025615 153 76 0
-0.077799 0.005516 -0.443040 76 0 153
-0.001699 0.098261 0.858527 76 153 0
0.026585 -0.026759 -0.443040 76 0 153
-0.116205 -0.158236 0.880521 76 153 0
-0.132868 -0.113345 -0.448421 76 0 153
0.074461 -0.394144 0.751248 153 0 76
0.090260 0.077210 0.285460 76 153 0
-0.028573 0.185575 -0.004402 76 0 153
0.141105 -0.245691 -0.568424 76 0 153
0.130511 -0.048582 0.422025 76 153 0
-0.019180 -0.204298 0.151348 153 76 0
0.195982 -0.134832 -0.022678 153 76 0
-0.060132 0.426234 -0.006160 0 255 0
-0.111396 0.055875 0.792361 76 153 0
-0.079428 0.041717 0.285460 76 153 0
-0.114069 -0.321482 -0.461844 76 0 153
-0.046158 0.137322 -0.464484 153 76 0
-0.012749 0.165751 0.215410 153 76 0
-0.214236 -0.038378 -0.443040 76 0 153
-0.146730 -0.123405 -0.215454 153 76 0
0.150951 -0.286111 -0.568424 76 0 153
0.236734 0.040620 -0.568424 76 0 153
-0.134919 -0.111539 0.275577 153 76 0
-0.140937 0.367563 -0.047448 0 255 0
-0.059538 -0.009354 -0.443040 76 0 153
-0.145014 0.110992 -0.199687 153 76 0
0.201782 0.169907 -0.568424 76 0 153
-0.335729 0.008416 -0.499472 76 0 153
-0.180861 -0.051094 0.173583 153 76 0
0.047194 0.417958 -0.146981 0 255 0
0.198092 0.366883 0.022631 0 255 0
-0.046060 0.187396 -0.568424 76 0 153
0.086121 -0.023674 -0.568424 76 0 153
0.129312 -0.317784 -0.457337 76 0 153
0.030390 -0.184167 -0.263654 153 76 0
0.172135 -0.299818 -0.557783 76 0 153
-0.014563 -0.196178 -0.217054 153 76 0
-0.027710 0.404145 0.018073 0 255 0
-0.116046 0.050636 0.392364 76 153 0
0.015062 0.415409 -0.142135 0 255 0
-0.064832 0.108886 -0.326731 153 76 0
-0.062720 -0.080546 0.370249 76 153 0
0.121602 -0.321020 -0.516907 76 0 153
0.158742 0.020175 0.285460 76 153 0
0.016185 0.234641 0.012752 76 0 153
-0.202760 -0.162060 -0.568424 76 0 153
0.078220 -0.164749 -0.444577 153 76 0
-0.092468 -0.245757 0.917624 76 153 0
-0.089987 0.088493 0.520554 76 153 0
0.194325 -0.043735 0.152692 153 76 0
-0.199991 0.099864 0.004813 153 76 0
0.111646 -0.087251 -0.443040 76 0 153
-0.205759 0.029644 -0.147677 153 76 0
-0.190668 -0.101460 -0.145836 153 76 0
0.311887 -0.122688 -0.568424 76 0 153
-0.195749 -0.080967 -0.155340 153 76 0
0.052175 0.002069 -0.464484 153 76 0
-0.173151 -0.132637 -0.146082 153 76 0
0.056198 -0.174237 -0.383286 153 76 0
0.172868 0.038426 -0.291558 153 76 0
0.009005 0.115599 0.370249 76 153 0
-0.116391 -0.175881 -0.170869 153 76 0
-0.120359 0.039789 0.628974 76 153 0
0.158539 -0.173383 0.053734 153 76 0
0.055368 0.309541 -0.012093 0 255 0
-0.214288 0.066356 0.015845 153 76 0
0.010625 -0.138057 0.565654 76 153 0
0.018250 0.026090 -0.464484 153 76 0
-0.021274 0.313735 -0.493861 76 0 153
0.067929 -0.241154 0.717070 76 153 0
-0.224961 0.229557 -0.474969 76 0 153
-0.030945 0.394177 0.162275 0 255 0
0.108546 0.076925 0.514358 76 153 0
0.135085 0.385990 -0.054587 0 255 0
0.015350 0.162566 0.247352 153 76 0
-0.016451 -0.135951 0.750983 76 153 0
-0.097261 -0.219804 -0.072603 153 76 0
-0.105363 0.401481 -0.054591 0 255 0
0.086658 0.057663 0.865867 76 153 0
0.207632 0.068384 -0.088105 153 76 0
0.045427 0.322926 0.006480 0 255 0
0.054788 0.074047 0.875169 76 153 0
0.045079 -0.394144 0.755608 153 0 76
-0.152877 -0.007710 -0.464484 153 76 0
0.019156 0.050337 0.912254 76 153 0
0.138473 -0.303520 0.827512 76 153 0
0.043537 0.414881 0.141730 0 255 0
0.118527 -0.045194 0.370249 76 153 0
-0.097660 -0.070002 0.909812 76 153 0
-0.180495 0.373762 0.026157 0 255 0
0.044871 -0.394144 0.914046 153 0 76
0.123350 -0.135855 0.267042 153 76 0
-0.194187 -0.095686 -0.568424 76 0 153
-0.072100 -0.394144 0.878223 153 0 76
0.027376 0.443934 -0.058666 0 255 0
-0.125077 0.106924 -0.284771 153 76 0
0.121002 -0.201420 0.059629 153 76 0
0.057495 0.147951 -0.464484 153 76 0
-0.102432 0.042024 0.370249 76 153 0
0.103446 0.083295 0.701302 76 153 0
0.125437 -0.061342 0.510715 76 153 0
-0.044880 0.168071 0.180268 153 76 0
0.016398 0.234641 -0.017800 76 0 153
-0.023559 0.093894 -0.443040 76 0 153
-0.276397 -0.200903 -0.474712 76 0 153
-0.109935 0.275608 -0.443040 76 0 153
-0.068111 -0.052387 -0.326731 153 76 0
-0.142337 -0.003850 0.340628 76 153 0
0.014667 -0.137459 0.784340 76 153 0
-0.116666 0.162869 -0.139880 153 76 0
0.052570 -0.149802 -0.464484 153 76 0
0.021714 0.390749 -0.176427 0 255 0
-0.052376 -0.106400 0.946179 76 153 0
0.222098 -0.023973 0.061759 153 76 0
-0.069481 -0.054016 0.370249 76 153 0
0.216259 -0.064686 -0.443040 76 0 153
-0.122629 -0.197730 -0.108374 153 76 0
-0.337758 -0.025724 -0.443040 76 0 153
0.320209 0.101305 -0.501107 76 0 153
-0.337288 -0.004733 -0.537073 76 0 153
-0.043417 -0.333781 0.701482 76 153 0
0.135840 -0.026404 -0.443040 76 0 153
-0.095889 -0.044448 -0.464484 153 76 0
0.138421 -0.000772 0.656888 76 153 0
0.037305 0.084554 -0.568424 76 0 153
0.266682 -0.219530 -0.547720 76 0 153
0.010945 0.126645 0.534177 76 153 0
0.044507 -0.132213 0.385383 76 153 0
-0.217231 0.394251 -0.037183 0 255 0
-0.035742 0.121007 0.623132 76 153 0
-0.166857 0.008767 -0.448034 153 76 0
0.034685 0.158923 -0.350619 153 76 0
0.035642 -0.189255 0.194128 153 76 0
0.113020 -0.194364 0.902302 76 153 0
-0.161277 0.071864 -0.568424 76 0 153
0.200286 -0.280392 -0.532320 76 0 153
-0.279260 -0.141245 -0.568424 76 0 153
0.041924 -0.184552 -0.250191 153 76 0
0.258970 0.070416 -0.568424 76 0 153
0.052819 0.256120 -0.568424 76 0 153
0.224680 0.009428 0.031832 153 76 0
-0.165387 -0.026001 -0.443040 153 76 0
-0.314278 0.101959 -0.546144 76 0 153
-0.083485 0.138722 -0.389843 153 76 0
0.144872 -0.217713 -0.443040 76 0 153
0.198430 -0.022687 0.147399 153 76 0
-0.027019 0.424771 0.136734 0 255 0
0.170016 0.129087 -0.092498 153 76 0
-0.271332 0.178759 -0.514619 76 0 153
-0.104659 -0.306183 -0.568424 76 0 153
-0.097897 -0.089623 0.690157 76 153 0
0.032910 0.304565 -0.074849 0 255 0
0.220626 0.048545 -0.002116 153 76 0
-0.191451 0.061257 -0.157753 153 76 0
-0.019619 -0.394144 0.938536 153 0 76
0.214432 -0.026057 -0.443040 76 0 153
0.063672 0.155558 -0.261397 153 76 0
-0.114452 0.054644 0.696579 76 153 0
0.086522 -0.038422 0.285460 76 153 0
-0.072647 -0.376891 0.934119 76 153 0
-0.122522 -0.347897 0.780862 76 153 0
-0.071931 -0.113009 0.579367 76 153 0
-0.019649 0.220184 -0.140125 76 0 153
-0.121767 -0.242850 -0.568424 76 0 153
0.009803 -0.066969 0.285460 76 153 0
0.125590 0.173878 0.005581 153 76 0
-0.061082 0.176538 0.136424 153 76 0
0.259423 -0.200796 -0.568424 76 0 153
-0.085772 0.172353 -0.158879 153 76 0
-0.151972 -0.294568 -0.568424 76 0 153
0.316265 0.110087 -0.534762 76 0 153
-0.136293 0.088892 -0.359269 153 76 0
0.011632 0.336973 0.026465 0 255 0
0.036047 -0.132914 0.956451 76 153 0
-0.161711 -0.179483 0.018785 153 76 0
-0.101554 0.124990 -0.392624 153 76 0
-0.243271 0.215370 -0.522969 76 0 153
0.069551 0.097407 -0.464484 153 76 0
0.025403 0.300945 0.022250 0 255 0
-0.015001 0.381254 -0.090598 0 255 0
0.119847 -0.072924 0.562520 76 153 0
-0.143196 0.031628 -0.326731 153 76 0
-0.053248 -0.230728 0.062652 153 76 0
0.187304 -0.125611 -0.568424 76 0 153
-0.104255 0.213442 -0.069630 76 0 153
0.038370 0.168617 0.188380 153 76 0
0.008763 0.376581 -0.006011 0 255 0
-0.314926 -0.076933 -0.443040 76 0 153
-0.081656 -0.042560 0.285460 76 153 0
0.000371 -0.142154 0.715305 76 153 0
0.021594 -0.138005 0.364932 76 153 0
-0.152532 0.133642 0.101810 153 76 0
-0.195934 0.377231 -0.057950 0 255 0
-0.118334 -0.309918 0.874992 76 153 0
0.065268 -0.323562 0.944965 76 153 0
-0.051552 0.247789 -0.023412 0 255 0
0.078824 0.144999 -0.411127 153 76 0
-0.169419 -0.023637 0.249641 153 76 0
0.231556 0.229697 -0.535802 76 0 153
0.073835 0.080631 0.850323 76 153 0
-0.194124 -0.264817 -0.443040 76 0 153
0.087940 -0.107981 0.603379 76 153 0
-0.166185 -0.026844 0.296657 76 153 0
0.029742 0.159485 -0.400756 153 76 0
0.120909 -0.063245 0.889694 76 153 0
-0.040777 -0.188117 0.194137 153 76 0
0.056181 -0.149514 0.285460 76 153 0
0.072226 0.109093 0.553955 76 153 0
0.166746 -0.270273 -0.443040 76 0 153
-0.152933 -0.083080 0.256279 153 76 0
-0.103459 -0.108332 -0.443040 76 0 153
-0.111677 -0.076297 -0.443040 76 0 153
0.102733 0.166622 0.118240 153 76 0
0.103738 0.075123 0.804682 76 153 0
-0.108068 0.065288 0.522464 76 153 0
0.084817 0.115754 -0.326731 153 76 0
0.177724 -0.001711 -0.340276 153 76 0
0.032003 0.124255 0.646938 76 153 0
0.270750 -0.193355 -0.443040 76 0 153
-0.140394 0.014253 0.285460 76 153 0
-0.043980 -0.310029 -0.568424 76 0 153
0.162233 -0.135759 -0.568424 76 0 153
0.021648 -0.003207 0.370249 76 153 0
-0.077494 0.033534 -0.326731 153 76 0
-0.005797 -0.331922 0.959155 76 153 0
0.064948 -0.128703 -0.464484 153 76 0
0.181191 -0.142882 0.059407 153 76 0
0.007596 0.131374 -0.568424 76 0 153
0.153782 0.391377 -0.039691 0 255 0
-0.085964 0.137278 -0.365070 153 76 0
0.084748 0.033187 -0.568424 76 0 153
0.055291 -0.187237 0.189582 153 76 0
-0.093874 0.253179 -0.568424 76 0 153
-0.036087 -0.337216 -0.568424 76 0 153
0.052006 -0.255444 0.710550 76 153 0
-0.030036 0.143015 -0.326731 153 76 0
0.105300 -0.215426 0.029986 153 76 0
-0.103278 -0.325601 -0.553112 76 0 153
-0.017052 -0.138615 -0.326731 153 76 0
-0.153166 0.001459 0.326988 76 153 0
-0.099314 0.279399 -0.568424 76 0 153
-0.211877 -0.077808 -0.568424 76 0 153
0.078989 0.145306 -0.317328 153 76 0
-0.190500 0.391377 -0.048373 0 255 0
0.030182 0.123213 0.785422 76 153 0
-0.053322 0.113434 0.418337 76 153 0
-0.053503 -0.139077 0.723860 76 153 0
-0.135512 0.360816 -0.016911 0 255 0
0.108890 -0.268910 -0.568424 76 0 153
-0.020438 -0.135501 0.425344 76 153 0
-0.103631 0.075315 -0.326731 153 76 0
0.205407 0.062491 -0.568424 76 0 153
0.143900 0.126353 -0.182356 153 76 0
0.049939 -0.174710 0.300458 76 153 0
-0.273449 0.109939 -0.568424 76 0 153
-0.070312 0.185575 -0.056048 76 0 153
-0.080744 0.191759 0.057763 76 0 153
-0.009509 0.012125 0.936902 76 153 0
0.078586 -0.334102 -0.473830 76 0 153
0.046722 0.118318 -0.464484 153 76 0
-0.028743 0.052838 -0.443040 76 0 153
-0.209142 -0.006196 -0.443040 76 0 153
0.244551 -0.088219 -0.443040 76 0 153
-0.034911 -0.088223 0.370249 76 153 0
0.138299 -0.364363 0.820880 76 153 0
-0.134679 0.048471 0.335914 76 153 0
0.101098 -0.087732 0.745731 76 153 0
-0.136662 0.016385 -0.568424 76 0 153
0.334643 0.054271 -0.543693 76 0 153
-0.063555 0.200870 0.047284 76 0 153
0.192953 -0.286026 -0.476827 76 0 153
0.121212 -0.097684 0.890111 76 153 0
-0.065866 -0.117727 0.462572 76 153 0
-0.129133 -0.202189 0.818060 76 153 0
0.104933 -0.044965 0.908841 76 153 0
0.165235 0.066448 -0.251087 153 76 0
0.100466 -0.163024 -0.244508 153 76 0
-0.085829 -0.394144 0.791707 153 0 76
-0.053728 -0.394144 0.719263 153 0 76
-0.174601 -0.131544 0.104132 153 76 0
-0.009825 0.357913 0.132231 0 255 0
0.169408 0.043114 -0.437882 153 76 0
-0.103012 -0.298720 0.903047 76 153 0
0.055067 0.281445 -0.045299 0 255 0
-0.089466 -0.100152 0.516764 76 153 0
-0.025231 -0.134954 0.709167 76 153 0
-0.106479 -0.133576 0.285460 153 76 0
-0.160711 0.062118 0.204898 153 76 0
-0.069139 0.131437 -0.568424 76 0 153
-0.330552 0.052110 -0.490097 76 0 153
0.172663 -0.103584 -0.443040 76 0 153
0.094125 0.222139 -0.089049 76 0 153
-0.041289 -0.201062 0.153212 153 76 0
0.151970 0.228478 -0.443040 76 0 153
0.223345 -0.058420 -0.065082 153 76 0
-0.067774 0.106001 0.589164 76 153 0
-0.127912 0.006148 0.680719 76 153 0
-0.032304 -0.053218 0.953430 76 153 0
0.316687 0.068609 -0.568424 76 0 153
0.237768 0.222700 -0.568424 76 0 153
0.005972 0.211532 -0.062713 153 76 0
-0.213732 0.418464 -0.011933 0 255 0
-0.012652 0.376581 -0.018482 0 255 0
0.107988 -0.039852 0.285460 76 153 0
-0.102395 0.185575 -0.010313 76 0 153
-0.046210 -0.174961 -0.307685 153 76 0
-0.007598 0.009853 -0.464484 153 76 0
0.167031 0.051803 0.250054 153 76 0
0.201127 0.078828 0.059600 153 76 0
0.109047 -0.051257 -0.568424 76 0 153
-0.127251 -0.050536 0.836335 76 153 0
-0.110652 -0.162562 0.167166 153 76 0
0.126604 0.047204 0.609289 76 153 0
-0.145271 0.079663 -0.287672 153 76 0
0.028355 -0.317625 -0.568424 76 0 153
0.265005 -0.150877 -0.443040 76 0 153
-0.002056 -0.302201 0.696923 76 153 0
0.164315 0.425221 0.002782 0 255 0
0.002002 0.366975 -0.093466 0 255 0
0.129885 0.095386 -0.326731 153 76 0
-0.112235 -0.069825 0.497046 76 153 0
0.224486 -0.085042 -0.568424 76 0 153
-0.035830 -0.236163 0.953535 76 153 0
0.050531 -0.221721 0.713534 76 153 0
-0.149846 0.375395 0.002478 0 255 0
0.099120 0.088700 0.666690 76 153 0
-0.119507 0.022041 -0.464484 153 76 0
0.124983 0.051626 0.377253 76 153 0
0.138428 -0.006421 0.512504 76 153 0
0.133282 -0.140573 -0.232975 153 76 0
0.130652 -0.053052 -0.326731 153 76 0
-0.007708 -0.224311 -0.142580 153 76 0
-0.066716 -0.177636 -0.443040 76 0 153
0.149316 -0.309390 -0.504814 76 0 153
0.109063 0.192543 -0.043245 153 76 0
-0.124997 -0.331446 0.789584 76 153 0
-0.007708 0.039523 0.920748 76 153 0
0.179819 -0.076933 0.170656 153 76 0
0.102354 0.224632 0.008329 76 0 153
0.341441 -0.032385 -0.494539 76 0 153
0.106566 -0.065971 -0.326731 153 76 0
-0.195496 -0.066500 -0.443040 76 0 153
-0.119784 0.131862 -0.208967 153 76 0
0.198701 -0.115281 -0.101317 153 76 0
0.180264 0.047566 0.179597 153 76 0
0.087715 -0.130506 0.337387 76 153 0
-0.206203 -0.120782 -0.020214 153 76 0
-0.016237 -0.078329 -0.464484 153 76 0
0.080546 -0.056469 0.933467 76 153 0
0.157983 -0.166419 0.079327 153 76 0
-0.058856 -0.224684 -0.118618 153 76 0
-0.114546 0.054408 0.474996 76 153 0
-0.154464 0.061413 0.243684 153 76 0
0.121761 0.116936 -0.411940 153 76 0
-0.054690 -0.186624 -0.221506 153 76 0
-0.117041 0.048131 0.502744 76 153 0
-0.030558 0.049627 0.370249 76 153 0
-0.102103 0.073275 0.549523 76 153 0
-0.189807 0.023027 0.151047 153 76 0
0.032306 0.098179 -0.443040 76 0 153
-0.231271 -0.033472 -0.019881 153 76 0
0.003534 -0.019821 -0.326731 153 76 0
-0.282502 0.037066 -0.443040 76 0 153
-0.189038 -0.178411 -0.443040 76 0 153
0.020792 -0.182800 0.241150 153 76 0
-0.015009 0.037310 0.370249 76 153 0
0.030270 0.124451 0.709872 76 153 0
0.059105 0.306586 -0.443040 76 0 153
0.062737 -0.188438 -0.215882 153 76 0
0.332020 -0.099218 -0.488441 76 0 153
-0.234598 0.058612 -0.443040 76 0 153
-0.139345 0.029271 0.339293 76 153 0
0.133064 -0.240844 0.785141 76 153 0
0.101152 -0.097961 0.413543 76 153 0
0.172519 0.085921 0.149072 153 76 0
-0.181858 0.080993 0.121439 153 76 0
-0.117845 -0.219046 0.769826 76 153 0
-0.147631 0.073567 -0.358241 153 76 0
0.207040 0.349530 -0.008459 0 255 0
-0.045052 -0.135031 0.351863 76 153 0
0.106259 -0.297150 0.911019 76 153 0
0.301767 -0.026290 -0.443040 76 0 153
-0.006853 -0.186055 0.958994 76 153 0
0.045079 0.311008 -0.533575 76 0 153
0.137178 -0.017246 0.747504 76 153 0
-0.167984 -0.040011 -0.279728 153 76 0
0.113849 0.070397 0.379799 76 153 0
-0.117535 0.046856 0.285460 76 153 0
-0.122529 -0.081119 0.864103 76 153 0
-0.012297 0.407599 -0.176427 0 255 0
0.151219 -0.010803 -0.443040 76 0 153
-0.046731 0.047673 0.285460 76 153 0
0.071605 -0.128156 0.285460 153 76 0
0.029236 -0.006450 -0.464484 153 76 0
0.129056 -0.274053 0.774734 76 153 0
0.071225 -0.120704 0.642285 76 153 0
-0.144277 -0.107434 0.222799 153 76 0
0.091967 -0.326133 0.726015 76 153 0
-0.023090 0.401396 -0.010936 0 255 0
0.163890 -0.095486 0.203714 153 76 0
0.118968 0.364056 -0.038083 0 255 0
-0.192343 0.042852 0.133317 153 76 0
-0.007529 0.379592 0.014349 0 255 0
0.147881 -0.103799 0.295756 76 153 0
-0.311865 -0.136047 -0.525421 76 0 153
0.064150 -0.336178 -0.465735 76 0 153
-0.049938 -0.180953 -0.568424 76 0 153
-0.080888 -0.334143 -0.474541 76 0 153
-0.045739 -0.250139 -0.443040 76 0 153
-0.127700 -0.021413 0.815694 76 153 0
-0.134132 0.170446 -0.007664 153 76 0
0.229962 0.178223 -0.568424 76 0 153
0.289119 0.041961 -0.568424 76 0 153
0.112139 -0.301606 0.742730 76 153 0
0.110441 0.102820 0.333299 76 153 0
-0.005640 0.125744 -0.326731 153 76 0
0.137773 -0.012092 0.546198 76 153 0
0.041987 0.121783 0.736535 76 153 0
0.099020 0.004921 -0.326731 153 76 0
0.048161 0.273754 -0.568424 76 0 153
-0.048835 -0.129379 0.285460 76 153 0
0.168311 0.410141 -0.047047 0 255 0
0.095444 -0.129442 0.285460 153 76 0
-0.160471 0.421660 -0.059492 0 255 0
-0.143039 -0.151128 -0.176729 153 76 0
-0.156914 -0.175659 -0.098768 153 76 0
0.178701 0.019943 -0.263176 153 76 0
0.091367 -0.360861 0.722347 76 153 0
0.168991 -0.120786 -0.179471 153 76 0
0.001090 0.234641 -0.046197 76 0 153
-0.338702 -0.021672 -0.512388 76 0 153
0.210172 0.391377 0.011804 0 255 0
0.100355 -0.137470 0.742884 76 153 0
0.104656 -0.093270 0.390328 76 153 0
-0.192640 0.174340 -0.568424 76 0 153
-0.027137 -0.053987 -0.568424 76 0 153
-0.165514 0.020397 -0.414529 153 76 0
0.049734 0.383556 0.077051 0 255 0
0.077674 -0.164986 -0.357795 153 76 0
-0.245818 0.045094 -0.443040 76 0 153
-0.037958 0.185575 -0.076910 76 0 153
0.002741 0.187736 -0.174472 153 76 0
-0.125213 0.414622 -0.023132 0 255 0
0.222421 -0.263394 -0.518752 76 0 153
-0.175727 -0.087673 -0.568424 76 0 153
-0.051281 0.080893 -0.464484 153 76 0
-0.019972 0.265208 -0.443040 76 0 153
0.036848 -0.036216 -0.568424 76 0 153
-0.337233 -0.004263 -0.484220 76 0 153
-0.176062 -0.092161 0.148984 153 76 0
-0.052692 0.221485 -0.129217 76 0 153
-0.191362 -0.045471 -0.187745 153 76 0
0.175003 0.195557 -0.443040 76 0 153
0.067636 -0.240023 -0.443040 76 0 153
0.054352 -0.205595 -0.177077 153 76 0
0.076502 -0.255026 0.938033 76 153 0
-0.057982 0.108480 -0.464484 153 76 0
0.005909 0.238017 0.061139 76 0 153
-0.020118 -0.135534 0.383539 76 153 0
0.129833 -0.228072 -0.568424 76 0 153
0.077517 -0.215500 0.085064 153 76 0
-0.046380 0.376581 -0.007630 0 255 0
-0.212162 0.391144 0.009460 0 255 0
-0.078590 0.012934 -0.464484 153 76 0
-0.072507 0.078636 -0.464484 153 76 0
-0.146310 -0.090587 0.301604 76 153 0
0.107774 -0.264432 -0.443040 76 0 153
-0.104974 -0.068181 -0.568424 76 0 153
-0.258470 0.000432 -0.443040 76 0 153
0.132438 0.288624 -0.519338 76 0 153
-0.153093 -0.290744 -0.443040 76 0 153
-0.109205 -0.031698 -0.568424 76 0 153
0.021707 0.158805 0.302088 76 153 0
0.067931 -0.062521 -0.443040 76 0 153
-0.206556 0.065997 0.064525 153 76 0
-0.142446 0.058006 -0.443040 76 0 153
0.049147 0.426640 0.018725 0 255 0
0.178245 -0.052158 -0.258241 153 76 0
0.214959 -0.183558 -0.568424 76 0 153
0.137581 -0.040062 0.359022 76 153 0
-0.036148 0.393542 0.000389 0 255 0
0.099827 0.186901 0.033402 153 76 0
0.064102 -0.012561 0.285460 76 153 0
-0.182180 -0.055291 -0.443040 76 0 153
-0.178186 -0.040203 0.187532 153 76 0
0.176219 -0.033320 0.266452 153 76 0
-0.128814 -0.219434 0.826947 76 153 0
0.140087 0.163807 -0.032910 153 76 0
0.181097 0.102136 -0.443040 76 0 153
-0.131753 0.385905 0.016742 0 255 0
0.152800 0.047965 -0.326731 153 76 0
-0.014789 0.208769 -0.083060 153 76 0
0.041228 -0.052934 0.285460 76 153 0
0.258145 0.201646 -0.568081 76 0 153
0.136214 -0.089982 0.843071 76 153 0
0.180626 -0.050277 0.204033 153 76 0
0.138331 -0.184389 0.821159 76 153 0
0.087889 -0.158170 0.929392 76 153 0
-0.074365 -0.133291 -0.568424 76 0 153
-0.061597 0.199488 -0.099472 153 76 0
0.167618 0.137784 -0.061920 153 76 0
0.231257 0.077657 -0.443040 76 0 153
0.016667 0.125555 -0.464484 153 76 0
0.128592 -0.053410 0.684299 76 153 0
-0.011270 -0.276680 -0.568424 76 0 153
0.143006 -0.184008 -0.100367 153 76 0
-0.037238 0.120361 0.449056 76 153 0
-0.220175 0.400775 -0.016496 0 255 0
0.057820 -0.105568 -0.568424 76 0 153
0.142095 0.150914 -0.117197 153 76 0
0.167688 0.391377 0.006906 0 255 0
-0.108646 -0.039312 0.370249 76 153 0
0.089714 -0.262921 0.729471 76 153 0
0.200537 0.094178 0.000905 153 76 0
-0.021862 0.072418 0.285460 76 153 0
-0.213787 -0.266520 -0.466908 76 0 153
0.021433 0.199595 0.084908 153 76 0
-0.116367 -0.133953 -0.430374 153 76 0
-0.088343 -0.192698 0.131742 153 76 0
0.080398 -0.170454 -0.568424 76 0 153
-0.080507 0.140894 0.264998 153 76 0
-0.006569 -0.016219 -0.464484 153 76 0
0.027900 0.416126 -0.073083 0 255 0
-0.112682 0.059096 0.660252 76 153 0
0.097489 -0.050351 -0.326731 153 76 0
-0.123996 -0.204668 -0.568424 76 0 153
-0.011277 0.315175 -0.543964 76 0 153
0.206890 -0.105764 -0.073305 153 76 0
-0.015445 -0.180273 -0.318327 153 76 0
-0.126290 -0.357414 0.849514 76 153 0
0.173123 -0.299400 -0.453885 76 0 153
-0.135220 0.106470 -0.443040 76 0 153
-0.028349 -0.222227 0.101175 153 76 0
-0.034506 0.086505 -0.568424 76 0 153
-0.035936 0.361411 -0.032047 0 255 0
0.001428 -0.069115 0.370249 76 153 0
-0.028846 -0.149780 -0.443040 76 0 153
0.038328 -0.121340 0.285460 76 153 0
0.025645 0.124975 0.769657 76 153 0
0.089420 -0.101527 0.285460 76 153 0
0.287118 -0.192868 -0.544930 76 0 153
0.054602 -0.096617 -0.326731 153 76 0
-0.160599 -0.303734 -0.536662 76 0 153
-0.181764 0.391377 -0.016780 0 255 0
-0.249882 -0.027165 -0.568424 76 0 153
-0.175678 -0.012757 0.213968 153 76 0
0.046204 -0.246563 0.952670 76 153 0
0.036423 -0.180403 -0.282884 153 76 0
0.065750 -0.123065 0.582702 76 153 0
-0.029101 0.188804 -0.159841 153 76 0
-0.127637 -0.020249 0.511169 76 153 0
-0.126793 0.377142 -0.034281 0 255 0
-0.007603 -0.200434 -0.443040 76 0 153
0.138770 -0.215097 0.825102 76 153 0
0.009491 0.126811 0.603911 76 153 0
-0.077696 0.305618 -0.502190 76 0 153
-0.079922 0.149262 -0.443040 76 0 153
-0.109054 0.124103 0.227036 153 76 0
0.015191 -0.097891 0.370249 76 153 0
-0.056772 0.212622 -0.443040 76 0 153
0.063648 -0.101530 -0.464484 153 76 0
-0.117139 -0.027317 0.867274 76 153 0
-0.073839 0.144633 -0.286305 153 76 0
-0.051680 0.220443 0.067012 76 0 153
0.204786 -0.042552 0.120004 153 76 0
0.095248 -0.331704 -0.552424 76 0 153
-0.208443 -0.067091 0.093328 153 76 0
-0.109483 0.222028 -0.012294 76 0 153
0.110975 -0.084806 0.532872 76 153 0
-0.003321 0.406151 -0.029299 0 255 0
0.053414 -0.128378 0.780262 76 153 0
0.186184 0.016259 -0.568424 76 0 153
0.004751 -0.267277 -0.443040 76 0 153
0.017443 0.102724 -0.464484 153 76 0
0.285149 -0.152007 -0.568424 76 0 153
0.003879 0.053196 0.370249 76 153 0
0.028442 0.185575 0.075136 76 0 153
-0.088827 -0.100891 0.782704 76 153 0
0.032725 -0.324829 0.697608 76 153 0
-0.141188 -0.034676 0.338174 76 153 0
-0.129458 0.098046 -0.346564 153 76 0
-0.032677 -0.229291 -0.443040 76 0 153
0.138641 -0.117838 -0.397967 153 76 0
-0.036048 -0.131252 0.628486 76 153 0
0.266113 0.191951 -0.483980 76 0 153
0.055516 0.420083 0.123599 0 255 0
0.073122 0.307901 -0.520594 76 0 153
0.120117 -0.092287 0.343557 76 153 0
0.107997 0.172578 -0.129455 153 76 0
-0.019590 -0.024010 0.949659 76 153 0
-0.120446 0.039575 0.582404 76 153 0
0.219702 -0.064113 -0.088837 153 76 0
0.001463 -0.072681 0.959919 76 153 0
0.009517 0.126808 0.563060 76 153 0
0.136912 0.009295 0.474461 76 153 0
0.144136 0.090913 -0.410521 153 76 0
0.108007 0.009720 -0.568424 76 0 153
0.049779 -0.211114 -0.443040 76 0 153
-0.029964 0.200124 -0.138632 153 76 0
0.203380 0.352881 -0.040785 0 255 0
0.062013 0.158886 0.203677 153 76 0
0.005896 0.279014 0.027233 0 255 0
0.130304 0.004230 0.834673 76 153 0
0.055396 0.395463 0.011967 0 255 0
-0.189437 -0.008261 0.162150 153 76 0
-0.101909 -0.084614 0.658291 76 153 0
-0.275082 0.076711 -0.568424 76 0 153
0.114910 -0.143547 0.247999 153 76 0
-0.050789 0.428243 -0.022584 0 255 0
-0.122978 -0.130779 0.235870 153 76 0
-0.214774 -0.071439 -0.443040 76 0 153
-0.093959 0.393893 0.017807 0 255 0
-0.134219 0.285668 -0.500356 76 0 153
-0.057112 0.187843 -0.149734 153 76 0
0.162374 -0.219896 -0.568424 76 0 153
0.133618 -0.379477 0.786576 76 153 0
-0.035178 0.052055 -0.464484 153 76 0
-0.158192 -0.078599 0.227748 153 76 0
0.019187 0.383083 0.015870 0 255 0
0.079905 -0.331279 0.715728 76 153 0
0.000297 -0.268969 0.960084 76 153 0
-0.157396 0.049686 -0.321109 153 76 0
-0.015027 0.238017 -0.093885 76 0 153
0.176198 -0.027095 -0.450355 153 76 0
-0.087711 -0.002265 0.285460 76 153 0
0.245342 -0.109983 -0.568424 76 0 153
0.137460 -0.126826 0.834482 76 153 0
-0.115745 -0.360776 0.881717 76 153 0
-0.009657 -0.113334 0.370249 76 153 0
0.017476 0.406384 0.015014 0 255 0
-0.178698 -0.159296 -0.568424 76 0 153
0.295654 0.155986 -0.493315 76 0 153
0.241948 -0.079135 -0.568424 76 0 153
-0.072237 -0.010352 -0.464484 153 76 0
-0.329593 0.060197 -0.504298 76 0 153
-0.024346 0.416554 -0.217244 0 255 0
0.078028 -0.229768 -0.034573 153 76 0
-0.002775 0.257299 0.026879 0 255 0
0.055422 -0.026194 -0.443040 76 0 153
-0.264846 -0.206674 -0.443040 76 0 153
-0.147999 -0.153433 0.122560 153 76 0
0.277562 0.098231 -0.443040 76 0 153
0.147681 0.005933 -0.443040 76 0 153
0.223738 -0.016765 -0.098430 153 76 0
-0.185939 0.100780 -0.568424 76 0 153
0.138183 -0.008538 0.778954 76 153 0
-0.011846 0.377297 0.121369 0 255 0
-0.160863 -0.059425 -0.326731 153 76 0
-0.182243 0.118358 -0.079687 153 76 0
-0.194539 0.009661 0.142680 153 76 0
0.135168 0.046498 -0.464484 153 76 0
-0.003844 0.171846 -0.231619 153 76 0
-0.233880 -0.196152 -0.568424 76 0 153
-0.109560 0.368475 0.006303 0 255 0
0.105409 -0.092261 0.673963 76 153 0
-0.170914 0.025163 0.216608 153 76 0
0.135800 0.113441 -0.240372 153 76 0
-0.003244 0.130521 0.356375 76 153 0
-0.038417 0.078828 -0.443040 76 0 153
0.335264 -0.084503 -0.458574 76 0 153
-0.171172 0.118521 -0.443040 76 0 153
0.144236 0.099033 0.212732 153 76 0
-0.015539 0.376581 -0.037327 0 255 0
0.039828 0.428587 -0.019860 0 255 0
0.136417 -0.122053 0.267601 153 76 0
0.333393 -0.023681 -0.568424 76 0 153
-0.158853 0.056078 0.228876 153 76 0
0.341136 0.012107 -0.443131 76 0 153
0.197050 0.010485 0.147516 153 76 0
-0.127654 -0.145875 -0.217764 153 76 0
0.021082 0.311880 -0.443040 76 0 153
-0.144340 -0.102365 0.242789 153 76 0
0.159791 -0.046236 -0.443040 76 0 153
-0.098915 -0.021424 -0.326731 153 76 0
-0.201128 0.086365 0.053470 153 76 0
0.071803 -0.122563 -0.443040 76 0 153
0.017055 -0.143835 0.715723 76 153 0
0.005512 -0.120542 0.960034 76 153 0
0.146817 -0.310439 -0.478646 76 0 153
0.130242 -0.321072 0.777815 76 153 0
-0.028772 -0.241571 -0.038619 153 76 0
0.136999 -0.018801 0.525810 76 153 0
0.244649 -0.183284 -0.568424 76 0 153
0.203009 -0.007200 -0.443040 76 0 153
-0.184699 0.108454 0.062695 153 76 0
-0.138600 -0.146455 -0.192887 153 76 0
-0.058970 0.177987 -0.443040 76 0 153
-0.086217 -0.113637 -0.326731 153 76 0
-0.148392 0.420851 0.003795 0 255 0
0.125097 0.031927 0.819327 76 153 0
-0.004461 -0.137315 0.645767 76 153 0
-0.013924 0.161480 0.257393 153 76 0
-0.253366 0.012269 -0.568424 76 0 153
0.249860 0.001090 -0.443040 76 0 153
-0.106087 0.069839 0.761176 76 153 0
0.197310 0.101050 -0.046765 153 76 0
0.244074 -0.246766 -0.540127 76 0 153
0.128106 0.171274 -0.062388 153 76 0
-0.031602 -0.394144 0.707707 153 0 76
0.121035 -0.318212 0.890529 76 153 0
-0.011303 0.376625 -0.149891 0 255 0
-0.043221 -0.175160 -0.427322 153 76 0
0.012594 0.010684 0.370249 76 153 0
0.198975 -0.049912 -0.176487 153 76 0
-0.067865 -0.180140 0.184951 153 76 0
0.229766 -0.015960 -0.008239 153 76 0
0.033941 0.159008 -0.375796 153 76 0
0.026568 -0.137802 0.285460 76 153 0
0.131123 -0.233865 0.866728 76 153 0
0.037901 0.027291 -0.464484 153 76 0
0.011351 0.148250 0.327436 76 153 0
-0.072581 -0.087067 0.934174 76 153 0
-0.060871 -0.106089 -0.326731 153 76 0
0.027573 0.431919 -0.098507 0 255 0
0.082541 0.306859 -0.568040 76 0 153
0.074762 0.237411 -0.568424 76 0 153
-0.203061 -0.046476 -0.157486 153 76 0
-0.107526 -0.158687 -0.568424 76 0 153
0.119618 0.138611 0.161809 153 76 0
0.003129 0.127535 0.722313 76 153 0
-0.127221 0.288605 -0.539508 76 0 153
0.198446 0.375450 -0.064966 0 255 0
-0.023698 -0.004795 -0.568424 76 0 153
0.110397 0.282365 -0.443040 76 0 153
0.048458 0.365697 0.154287 0 255 0
0.125398 -0.061438 0.535525 76 153 0
-0.007221 0.372528 0.041869 0 255 0
0.053109 0.402249 -0.011446 0 255 0
0.006098 0.185575 0.001254 76 0 153
0.166055 -0.078821 0.231505 153 76 0
-0.043373 -0.056022 -0.326731 153 76 0
-0.157276 0.049313 -0.434166 76 0 153
0.010799 0.353723 -0.173907 0 255 0
-0.007825 -0.136934 0.679791 76 153 0
-0.061370 0.148246 -0.347036 153 76 0
0.282568 0.128633 -0.568424 76 0 153
0.090046 0.140252 -0.379451 153 76 0
-0.019911 0.024638 0.285460 76 153 0
-0.206301 0.146159 -0.443040 76 0 153
-0.069064 -0.394144 0.907159 153 0 76
-0.140174 0.216760 -0.568424 76 0 153
-0.207248 0.085836 0.000989 153 76 0
-0.103265 -0.206064 0.082524 153 76 0
-0.233477 0.201867 -0.443040 76 0 153
0.046286 0.389869 -0.226901 0 255 0
0.034704 -0.306822 -0.443040 76 0 153
0.003142 0.237777 -0.084252 0 255 0
-0.122481 -0.046402 0.390121 76 153 0
0.180294 0.101165 0.097004 153 76 0
-0.113131 -0.260583 0.758700 76 153 0
-0.318855 -0.120483 -0.491699 76 0 153
-0.130962 0.267706 -0.568424 76 0 153
0.123922 -0.008619 0.370249 76 153 0
-0.081717 0.046129 0.873918 76 153 0
-0.159960 -0.176320 0.042460 153 76 0
-0.078241 0.097751 0.713678 76 153 0
0.100189 -0.098719 0.502869 76 153 0
0.058791 0.427091 -0.045171 0 255 0
-0.024272 0.369487 0.007432 0 255 0
0.014659 -0.192295 -0.235314 153 76 0
0.047060 0.185575 -0.101649 76 0 153
-0.175694 0.041370 -0.220688 153 76 0
0.241978 0.221318 -0.489228 76 0 153
0.113083 0.387734 0.016994 0 255 0
-0.119829 -0.187950 0.099185 153 76 0
-0.154002 0.210531 -0.443040 76 0 153
-0.217574 -0.094182 -0.025330 153 76 0
0.005126 0.065801 0.285460 76 153 0
0.067503 0.419979 -0.012409 0 255 0
-0.118951 -0.394144 0.781240 153 0 76
0.003510 0.358123 -0.031588 0 255 0
0.030983 0.124369 0.394661 76 153 0
-0.082788 0.094167 0.615599 76 153 0
0.044933 0.303065 -0.063783 0 255 0
0.168311 0.393593 -0.048533 0 255 0
-0.020519 0.443834 -0.041111 0 255 0
0.113061 -0.158395 -0.226605 153 76 0
-0.141794 -0.191057 -0.078372 153 76 0
-0.024631 0.424859 -0.002672 0 255 0
-0.025601 0.313114 -0.446948 76 0 153
-0.166938 0.008065 -0.348801 153 76 0
0.303416 -0.120143 -0.443040 76 0 153
-0.002344 -0.218876 -0.159160 153 76 0
-0.134982 -0.110704 -0.365355 153 76 0
-0.129933 0.012214 -0.443040 76 0 153
0.010420 0.161683 -0.378367 153 76 0
-0.032055 0.166755 -0.443040 153 76 0
0.135175 0.102103 -0.387301 153 76 0
-0.129179 -0.004840 0.477170 76 153 0
0.124013 0.053126 0.703436 76 153 0
0.032843 0.376581 0.005575 0 255 0
-0.040631 -0.021409 -0.443040 76 0 153
0.202276 0.063891 -0.124780 153 76 0
-0.163946 -0.117265 -0.568424 76 0 153
0.317462 -0.029001 -0.568424 76 0 153
-0.206345 -0.008808 0.117348 153 76 0
0.212193 0.068853 -0.026936 153 76 0
0.057846 -0.073139 -0.568424 76 0 153
0.142649 0.181777 -0.568424 76 0 153
-0.079020 -0.161144 -0.387880 153 76 0
0.025035 -0.216667 -0.568424 76 0 153
-0.052849 0.383352 0.015987 0 255 0
0.022479 0.384731 0.189514 0 255 0
-0.117178 0.049672 0.761462 76 153 0
0.097677 -0.210860 0.921963 76 153 0
0.065704 0.096288 0.370249 76 153 0
-0.072729 -0.049188 0.931452 76 153 0
-0.095826 0.081680 0.438156 76 153 0
0.139489 0.134492 0.132314 153 76 0
0.023297 0.352582 0.141525 0 255 0
-0.020765 -0.179276 -0.416359 153 76 0
0.150387 0.155772 -0.043209 153 76 0
-0.199525 0.359719 -0.001200 0 255 0
-0.135835 0.097422 -0.263486 153 76 0
-0.019675 0.400099 0.068601 0 255 0
-0.043417 -0.128315 0.483726 76 153 0
0.134921 -0.036804 0.707371 76 153 0
0.061994 0.137015 -0.568424 76 0 153
-0.284754 -0.013555 -0.568424 76 0 153
-0.124118 -0.012273 0.370249 76 153 0
0.132382 -0.049605 0.285460 153 76 0
-0.024481 -0.128208 0.285460 76 153 0
0.071399 0.090539 0.836453 76 153 0
-0.103854 0.123176 -0.367541 153 76 0
0.043829 -0.328579 -0.568424 76 0 153
0.015823 0.386980 -0.070389 0 255 0
0.122598 -0.248886 0.886844 76 153 0
-0.010130 0.361954 -0.211396 0 255 0
0.059030 0.385987 0.160756 0 255 0
-0.280884 -0.195443 -0.548880 76 0 153
0.006493 -0.246954 -0.568424 76 0 153
0.183859 0.012354 -0.238692 153 76 0
0.102016 -0.151667 -0.346710 153 76 0
0.001031 0.127421 0.738343 76 153 0
0.168259 0.094090 -0.568424 76 0 153
-0.084935 0.165776 -0.443040 76 0 153
-0.165969 0.247242 -0.443040 76 0 153
0.041411 0.122009 0.617842 76 153 0
-0.060639 -0.196717 -0.188853 153 76 0
0.173304 0.032910 0.265185 153 76 0
0.098069 -0.051700 -0.464484 153 76 0
-0.260590 -0.174761 -0.568424 76 0 153
0.123292 -0.075196 0.285460 76 153 0
0.030089 -0.079866 0.285460 76 153 0
0.043790 0.145767 0.325573 76 153 0
0.294088 -0.051234 -0.568424 76 0 153
-0.074526 -0.164044 0.263066 153 76 0
0.160687 -0.134233 -0.443040 76 0 153
-0.038256 -0.299707 0.702577 76 153 0
0.008021 0.146514 -0.443040 76 0 153
0.005726 0.102014 -0.443040 76 0 153
-0.161657 -0.154368 0.092188 153 76 0
-0.061629 0.152776 -0.264618 153 76 0
0.140519 0.102428 -0.260404 153 76 0
-0.100862 -0.175907 0.153357 153 76 0
0.001376 0.405490 0.141730 0 255 0
0.131232 -0.279879 -0.568424 76 0 153
0.183593 -0.149329 0.012709 153 76 0
-0.061547 0.148509 -0.318905 153 76 0
-0.027568 -0.134688 0.456833 76 153 0
0.044725 0.203969 -0.088574 153 76 0
0.264377 0.147940 -0.568424 76 0 153
-0.117389 0.161565 -0.568424 76 0 153
-0.069915 0.185575 0.038341 76 0 153
0.165215 0.142878 -0.014309 153 76 0
-0.112246 0.194892 -0.568424 76 0 153
0.121419 -0.119408 -0.443040 76 0 153
0.136247 0.013729 0.418037 76 153 0
-0.064248 -0.119123 0.399618 76 153 0
-0.311525 0.008083 -0.568424 76 0 153
-0.148791 -0.176797 0.073098 153 76 0
-0.064268 0.089933 -0.568424 76 0 153
-0.087298 0.196946 -0.099708 76 0 153
0.203144 0.046125 0.108296 153 76 0
0.056050 -0.064634 0.370249 76 153 0
0.075281 -0.256608 -0.568424 76 0 153
-0.092568 -0.200068 -0.443040 76 0 153
0.082763 0.204487 -0.568424 76 0 153
-0.215433 -0.123194 -0.443040 76 0 153
0.103143 0.189775 -0.568424 76 0 153
0.027655 0.238017 -0.131571 76 0 153
-0.126946 -0.323351 0.843649 76 153 0
-0.170267 -0.278663 -0.443040 76 0 153
-0.137379 -0.204948 -0.443040 76 0 153
-0.116221 -0.247830 -0.443040 76 0 153
0.002898 0.127561 0.669499 76 153 0
-0.228388 -0.005896 -0.072067 153 76 0
-0.123538 0.031798 0.550971 76 153 0
-0.113389 -0.394144 0.763335 76 153 0
0.124857 -0.101091 -0.464484 153 76 0
-0.041836 -0.240718 -0.015133 153 76 0
-0.038535 -0.092590 -0.568424 76 0 153
0.028612 0.437598 0.166781 0 255 0
-0.096879 -0.211048 -0.114162 153 76 0
-0.318545 -0.015975 -0.568424 76 0 153
0.213732 -0.025185 0.096576 153 76 0
-0.032267 0.210427 -0.020997 153 76 0
0.190599 -0.120154 -0.126278 153 76 0
0.104711 -0.144508 0.308178 76 153 0
-0.012369 0.145705 -0.443040 76 0 153
0.110039 -0.322317 -0.568424 76 0 153
-0.076441 0.197951 0.028693 153 76 0
0.030032 0.232997 -0.568424 76 0 153
-0.003962 0.185575 0.063227 76 0 153
0.058649 0.115259 0.440915 76 153 0
0.130182 -0.162714 -0.443040 76 0 153
-0.118722 -0.054995 0.641380 76 153 0
-0.194122 0.092989 -0.110532 153 76 0
0.165183 -0.085434 -0.259952 153 76 0
0.133476 -0.041130 0.459354 76 153 0
0.090796 0.095442 0.680915 76 153 0
-0.217700 0.050761 -0.078507 153 76 0
-0.002821 0.032404 -0.443040 76 0 153
0.124547 0.114561 0.288616 76 153 0
-0.036791 -0.177455 -0.365635 153 76 0
0.193945 0.439153 -0.036001 0 255 0
0.168841 -0.098239 -0.219698 153 76 0
0.135236 0.020467 0.654074 76 153 0
-0.315659 -0.049901 -0.568424 76 0 153
-0.182294 -0.289074 -0.490011 76 0 153
0.061359 0.405338 -0.202696 0 255 0
-0.089741 -0.163286 0.207494 153 76 0
-0.112902 0.058546 0.568047 76 153 0
0.275322 -0.003661 -0.568424 76 0 153
-0.002821 -0.112477 -0.464484 153 76 0
0.030926 0.294435 -0.443040 76 0 153
0.115444 0.068310 0.592447 76 153 0
0.050392 0.018675 -0.326731 153 76 0
0.014172 -0.215104 -0.443040 76 0 153
0.031822 -0.352663 0.956947 76 153 0
-0.025017 0.194526 0.102071 153 76 0
0.024385 0.328010 0.022679 0 255 0
-0.026574 -0.268973 0.955988 76 153 0
0.108941 0.045933 0.845180 76 153 0
-0.088278 -0.394144 0.823080 153 0 76
0.009694 0.395090 0.183633 0 255 0
-0.090643 0.053965 0.853777 76 153 0
-0.053946 -0.254801 0.945480 76 153 0
-0.112922 -0.190610 0.889041 76 153 0
0.201731 0.008660 -0.173959 153 76 0
0.083300 0.207176 -0.443040 76 0 153
-0.286856 0.033169 -0.568424 76 0 153
0.115924 -0.074469 0.732604 76 153 0
-0.010923 0.152768 0.285460 153 76 0
0.053462 0.397565 0.112202 0 255 0
-0.199715 0.053784 -0.568424 76 0 153
-0.060090 -0.121447 0.629754 76 153 0
-0.269597 0.056322 -0.443040 76 0 153
-0.026024 0.120176 -0.443040 76 0 153
-0.282818 -0.121706 -0.568424 76 0 153
0.239988 -0.142383 -0.443040 76 0 153
0.255806 0.204490 -0.455771 76 0 153
0.203282 0.133036 -0.443040 76 0 153
0.020441 0.125566 0.630928 76 153 0
0.135835 -0.028887 0.594597 76 153 0
0.182893 -0.273380 -0.568424 76 0 153
-0.104296 -0.142849 -0.361345 153 76 0
-0.159477 0.141866 -0.568424 76 0 153
0.172528 -0.140362 0.093723 153 76 0
-0.065920 -0.204841 0.123721 153 76 0
-0.018891 0.185575 0.053806 76 0 153
-0.022608 0.419506 0.115443 0 255 0
0.006585 -0.036841 -0.568424 76 0 153
-0.054351 0.112990 0.551104 76 153 0
-0.073924 -0.157826 -0.443040 76 0 153
0.053039 0.402752 -0.066374 0 255 0
0.051506 -0.039069 0.285460 76 153 0
-0.026604 0.114738 0.370249 76 153 0
0.036540 -0.191649 -0.568424 76 0 153
0.228783 0.428997 -0.032367 0 255 0
-0.292808 -0.093314 -0.568424 76 0 153
0.027836 -0.184141 0.225258 153 76 0
0.179095 -0.022192 -0.568424 76 0 153
-0.155678 0.152639 -0.048248 153 76 0
-0.169096 -0.014504 -0.423729 153 76 0
0.051528 0.182678 -0.172298 153 76 0
0.140623 -0.193126 -0.568424 76 0 153
-0.149419 0.095490 -0.443040 76 0 153
0.170860 0.118004 -0.125376 153 76 0
0.042394 0.094696 0.854027 76 153 0
-0.158377 -0.195849 -0.568424 76 0 153
0.017351 -0.137063 0.751490 76 153 0
0.124645 -0.264396 -0.443040 76 0 153
-0.177229 0.006827 0.197208 153 76 0
0.012374 0.429544 0.141730 0 255 0
0.198709 -0.281604 -0.492833 76 0 153
-0.071112 -0.394144 0.767277 153 0 76
0.008715 -0.034787 -0.464484 153 76 0
0.026443 -0.394144 0.917929 153 0 76
-0.129026 0.075241 -0.464484 153 76 0
0.106758 0.235195 -0.568424 76 0 153
0.082628 -0.164011 -0.302670 153 76 0
-0.057232 -0.122692 0.575061 76 153 0
-0.010887 0.043317 -0.464484 153 76 0
-0.056318 -0.165052 -0.568424 76 0 153
0.086381 0.238017 -0.010880 76 0 153
-0.169619 -0.009768 -0.313165 153 76 0
0.145113 0.142712 0.096922 153 76 0
-0.145333 -0.037432 -0.568424 76 0 153
0.054205 0.244121 -0.047412 0 255 0
-0.177890 0.102934 0.096007 153 76 0
-0.021221 -0.179224 -0.433035 76 0 153
-0.067126 -0.116737 0.490978 76 153 0
0.154085 0.148734 0.045520 153 76 0
0.066043 0.063921 0.880214 76 153 0
0.066923 -0.173701 -0.271358 153 76 0
0.006027 0.166918 -0.258828 153 76 0
-0.133404 -0.314108 -0.503925 76 0 153
0.214465 -0.161916 -0.443040 76 0 153
0.130711 -0.074040 0.867252 76 153 0
-0.110266 0.093137 -0.464484 153 76 0
-0.147773 0.118650 0.139280 153 76 0
0.125297 -0.288879 0.764976 76 153 0
0.065691 0.129833 -0.464484 153 76 0
-0.336130 -0.027084 -0.568424 76 0 153
-0.012875 0.163213 0.235293 153 76 0
-0.041880 0.162189 -0.568424 76 0 153
0.184256 0.391377 -0.009361 0 255 0
0.041961 0.401211 -0.148193 0 255 0
0.002852 0.395090 0.129556 0 255 0
0.146423 0.054892 -0.568424 76 0 153
-0.065755 0.358869 -0.018317 0 255 0
0.131666 -0.045678 0.739827 76 153 0
-0.059334 -0.172438 -0.275754 153 76 0
0.082194 -0.147556 0.324924 76 153 0
0.088400 -0.225224 -0.004137 153 76 0
0.133777 0.148047 -0.146939 153 76 0
0.017382 0.280825 -0.568424 76 0 153
-0.056523 0.009960 0.922113 76 153 0
0.179481 -0.118599 0.117620 153 76 0
-0.191754 -0.056746 0.141626 153 76 0
0.109859 0.404703 0.015745 0 255 0
0.129950 -0.011601 -0.443040 76 0 153
0.093887 -0.324127 0.924840 76 153 0
0.109521 0.229657 -0.022861 76 0 153
-0.014296 0.395090 0.121341 0 255 0
0.150531 0.112876 -0.568424 76 0 153
-0.236519 -0.200127 -0.443040 76 0 153
0.065619 0.162197 -0.222548 153 76 0
-0.130602 -0.104833 0.315143 76 153 0
0.007936 -0.182427 -0.346378 153 76 0
0.084717 -0.139794 -0.464484 153 76 0
0.043072 0.238017 -0.092688 76 0 153
0.108339 -0.129113 0.324604 76 153 0
-0.080472 0.197556 -0.053503 153 76 0
0.202324 -0.094297 0.081024 153 76 0
-0.174056 0.054053 -0.568424 76 0 153
0.116956 0.100138 0.285460 76 153 0
-0.167956 -0.022096 -0.362567 153 76 0
-0.023096 -0.248391 0.956518 76 153 0
-0.208449 0.118684 -0.568424 76 0 153
-0.149846 0.375232 -0.036734 0 255 0
-0.191713 0.031824 -0.443040 76 0 153
-0.112610 -0.394144 0.870543 153 0 76
0.056418 0.114295 0.787739 76 153 0
-0.100594 -0.322535 0.739626 76 153 0
-0.280258 -0.196204 -0.532906 76 0 153
-0.267863 0.183288 -0.553983 76 0 153
0.054984 -0.191951 0.949122 76 153 0
-0.123994 0.105361 -0.381531 153 76 0
-0.068951 -0.069559 -0.568424 76 0 153
0.095037 0.163530 -0.443040 76 0 153
-0.102792 -0.200319 0.742461 76 153 0
-0.096960 0.127310 0.297554 76 153 0
0.046805 0.220103 -0.131095 76 0 153
0.116356 -0.323222 -0.464745 76 0 153
0.051310 0.387173 -0.019669 0 255 0
-0.229409 0.004943 0.003957 153 76 0
-0.032068 -0.148405 -0.568424 76 0 153
0.101815 -0.010123 0.901598 76 153 0
-0.035603 0.157176 -0.416918 153 76 0
-0.067072 -0.281674 0.938655 76 153 0
-0.025440 0.165359 -0.247250 153 76 0
0.034303 0.187622 0.122269 153 76 0
-0.263893 -0.216117 -0.492902 76 0 153
0.042004 -0.177115 0.954368 76 153 0
-0.113580 0.177717 -0.097923 153 76 0
0.119956 -0.137521 -0.375351 153 76 0
0.066302 -0.023552 0.370249 76 153 0
0.098176 0.182387 0.066336 153 76 0
-0.074858 0.161280 -0.568424 76 0 153
-0.055481 -0.187836 0.176452 153 76 0
0.157106 0.122134 -0.443040 76 0 153
0.174806 0.041629 0.219914 153 76 0
-0.055252 0.185575 -0.110332 76 0 153
0.008462 0.156071 -0.464484 153 76 0
0.098549 -0.098298 -0.443040 76 0 153
0.148865 0.408168 0.014236 0 255 0
-0.145139 0.274692 -0.443040 76 0 153
0.168311 0.375483 -0.009051 0 255 0
-0.130206 0.001448 -0.326731 153 76 0
0.119459 0.426418 -0.031205 0 255 0
-0.165863 0.031794 0.249348 153 76 0
0.035625 0.401315 0.031967 0 255 0
-0.033858 0.159961 -0.277572 153 76 0
-0.049177 0.146100 0.316738 76 153 0
-0.124907 0.138914 -0.443040 76 0 153
-0.013017 0.192598 -0.155301 153 76 0
-0.045303 0.089638 0.853060 76 153 0
-0.053495 0.021679 0.370249 76 153 0
-0.049625 -0.017434 0.937157 76 153 0
0.129377 0.040864 0.394568 76 153 0
-0.168159 0.086819 -0.443040 76 0 153
-0.295722 -0.171998 -0.545958 76 0 153
-0.054127 0.228903 -0.568424 76 0 153
0.043761 0.235047 0.008685 0 255 0
0.077088 0.023618 -0.443040 76 0 153
0.090054 0.178663 -0.443040 76 0 153
-0.057831 0.167306 -0.208819 153 76 0
-0.297579 0.049819 -0.443040 76 0 153
0.144580 -0.153810 0.135824 153 76 0
0.077465 -0.157593 0.729649 76 153 0
0.092815 0.238017 -0.052045 76 0 153
-0.317688 0.031059 -0.443040 76 0 153
0.338013 0.032393 -0.452510 76 0 153
0.149369 0.410115 -0.014737 0 255 0
0.298394 0.149887 -0.554812 76 0 153
0.081619 0.102188 0.742996 76 153 0
0.093951 0.123671 0.323755 76 153 0
-0.069769 -0.170890 -0.260382 153 76 0
-0.037155 -0.177358 0.286012 153 76 0
-0.159498 0.043727 -0.418937 153 76 0
-0.088251 -0.101479 0.410541 76 153 0
0.126669 -0.376861 0.768541 76 153 0
-0.157774 -0.082899 -0.260159 153 76 0
0.215605 0.425321 0.015797 0 255 0
-0.094725 -0.028872 -0.443040 76 0 153
-0.094794 -0.394144 0.888963 153 0 76
-0.076478 -0.109392 0.699659 76 153 0
0.101137 -0.229683 0.727520 76 153 0
-0.165119 -0.041012 -0.456343 153 76 0
0.131442 0.108217 0.260595 153 76 0
0.012602 0.124591 -0.443040 76 0 153
0.141273 0.094489 -0.430914 153 76 0
0.007947 0.364792 0.039023 0 255 0
0.037249 -0.238069 -0.068184 153 76 0
-0.011377 0.125588 0.635403 76 153 0
0.019730 0.210409 0.011716 153 76 0
0.327927 -0.047787 -0.443040 76 0 153
-0.028249 -0.055730 0.370249 76 153 0
0.074594 -0.050507 0.285460 76 153 0
0.015615 -0.137318 0.595668 76 153 0
-0.002858 -0.220738 0.959603 76 153 0
0.041688 -0.133428 0.731881 76 153 0
0.123815 -0.320093 -0.491148 76 0 153
0.085593 0.165898 0.142386 153 76 0
0.194238 -0.090174 0.112673 153 76 0
0.062733 0.151302 -0.383768 153 76 0
-0.224104 -0.044961 0.044501 153 76 0
-0.155395 0.232125 -0.568424 76 0 153
-0.195328 -0.138401 0.007004 153 76 0
0.198134 0.380667 0.030313 0 255 0
-0.003170 -0.137462 0.598906 76 153 0
-0.081595 -0.151183 0.736463 76 153 0
0.174698 0.018472 -0.398016 153 76 0
0.005174 0.127303 0.519060 76 153 0
-0.283655 0.145125 -0.443040 76 0 153
-0.130927 -0.042323 0.285460 153 76 0
0.198073 -0.187965 -0.568424 76 0 153
-0.086293 0.238017 -0.018852 76 0 153
-0.015295 0.090070 0.285460 76 153 0
0.073711 0.220871 0.050712 76 0 153
-0.123710 0.031366 0.440598 76 153 0
-0.202259 0.059857 0.088644 153 76 0
-0.091276 0.303664 -0.472585 76 0 153
-0.127327 -0.050008 -0.464484 153 76 0
-0.072812 0.071025 0.854268 76 153 0
-0.046869 -0.025861 -0.326731 153 76 0
-0.104528 0.236894 0.006346 76 0 153
-0.057221 0.076050 0.864559 76 153 0
-0.082279 0.094570 0.507862 76 153 0
0.064026 0.136616 0.285460 153 76 0
-0.174102 0.359409 0.015016 0 255 0
0.202673 0.000554 0.134083 153 76 0
-0.126277 -0.184806 -0.136113 153 76 0
-0.091256 -0.204978 0.098491 153 76 0
0.087176 -0.032212 0.370249 76 153 0
