0.144753 -0.104092 -0.302842 0.300000 0.600000 0.000000
0.085944 0.756212 0.098916 0.300000 0.600000 0.000000
-0.036299 0.185207 0.403090 0.000000 1.000000 0.000000
0.201722 0.173448 -0.149695 0.300000 0.600000 0.000000
0.241197 0.140845 -0.088201 0.300000 0.600000 0.000000
0.054731 0.090805 0.183136 0.300000 0.600000 0.000000
-0.230417 0.020610 0.084976 0.300000 0.600000 0.000000
-0.041505 0.090566 0.196533 0.000000 1.000000 0.000000
-0.049678 -0.173593 -0.311270 0.300000 0.600000 0.000000
-0.256405 -0.118036 -0.150584 0.300000 0.600000 0.000000
0.103948 -0.149610 0.318645 0.000000 1.000000 0.000000
-0.143454 -0.399349 -0.037730 0.300000 0.600000 0.000000
-0.010457 0.144321 0.121901 0.000000 1.000000 0.000000
0.156370 0.006789 0.310231 0.000000 1.000000 0.000000
-0.126570 0.078926 0.274151 0.000000 1.000000 0.000000
0.021439 -0.595168 0.069167 0.300000 0.600000 0.000000
0.096897 0.031369 0.234397 0.000000 1.000000 0.000000
-0.166621 -0.174957 0.088817 0.300000 0.600000 0.000000
0.261420 0.012929 0.380782 0.000000 1.000000 0.000000
-0.246921 -0.059121 -0.216217 0.300000 0.600000 0.000000
0.037021 0.044966 0.371574 0.000000 1.000000 0.000000
0.257108 -0.050736 0.061342 0.300000 0.600000 0.000000
-0.202811 -0.048948 0.122641 0.300000 0.600000 0.000000
-0.095112 0.053711 0.186080 0.000000 1.000000 0.000000
-0.000859 0.178989 0.325569 0.000000 1.000000 0.000000
-0.039312 -0.115008 0.310574 0.000000 1.000000 0.000000
-0.180845 0.313038 -0.092739 0.300000 0.600000 0.000000
0.168138 -0.504361 -0.163446 0.300000 0.600000 0.000000
0.172021 -0.121021 -0.266142 0.300000 0.600000 0.000000
0.193652 0.062710 -0.281935 0.300000 0.600000 0.000000
0.006332 0.457479 0.004356 0.300000 0.600000 0.000000
0.095777 0.008234 0.310574 0.000000 1.000000 0.000000
-0.031365 -0.142564 0.179642 0.000000 1.000000 0.000000
-0.107877 -0.027466 0.245495 0.000000 1.000000 0.000000
-0.056301 0.681659 0.064416 0.300000 0.600000 0.000000
-0.264872 -0.065956 0.014717 0.300000 0.600000 0.000000
0.002725 -0.671967 -0.012861 0.300000 0.600000 0.000000
-0.100669 -0.238003 -0.208455 0.300000 0.600000 0.000000
0.036009 0.149802 -0.304773 0.300000 0.600000 0.000000
0.161538 -0.444548 0.003655 0.300000 0.600000 0.000000
0.022379 0.050470 -0.443113 0.000000 0.500000 0.500000
-0.131314 0.181266 -0.225959 0.300000 0.600000 0.000000
-0.178670 -0.050516 -0.274242 0.300000 0.600000 0.000000
0.093411 -0.632550 -0.153086 0.300000 0.600000 0.000000
0.125066 -0.242302 0.026815 0.300000 0.600000 0.000000
-0.155507 0.775210 0.035237 0.300000 0.600000 0.000000
0.032092 0.091088 0.211249 0.000000 1.000000 0.000000
-0.096969 -0.453940 -0.226447 0.300000 0.600000 0.000000
0.252311 -0.154239 -0.019040 0.300000 0.600000 0.000000
0.085760 0.636974 0.021065 0.300000 0.600000 0.000000
-0.103254 -0.502309 -0.227003 0.300000 0.600000 0.000000
0.116662 -0.066483 0.314666 0.000000 1.000000 0.000000
0.030310 -0.183947 0.151280 0.300000 0.600000 0.000000
0.003668 -0.278718 0.046317 0.300000 0.600000 0.000000
-0.195424 0.078671 0.105348 0.300000 0.600000 0.000000
-0.248219 -0.014904 -0.225222 0.300000 0.600000 0.000000
-0.013028 -0.182894 0.265828 0.000000 1.000000 0.000000
0.031141 -0.244112 0.308990 0.000000 1.000000 0.000000
0.095016 0.761006 0.076850 0.300000 0.600000 0.000000
0.001706 0.078914 -0.418916 0.300000 0.600000 0.000000
0.267531 -0.131869 -0.056659 0.300000 0.600000 0.000000
0.203241 0.008812 0.307769 0.000000 1.000000 0.000000
0.124802 -0.137600 -0.297170 0.300000 0.600000 0.000000
0.076735 -0.003270 -0.443113 0.000000 0.500000 0.500000
-0.059361 0.112775 -0.295694 0.300000 0.600000 0.000000
0.169873 -0.430779 -0.031242 0.300000 0.600000 0.000000
-0.141543 0.326346 -0.101118 0.300000 0.600000 0.000000
-0.164893 -0.096672 0.142125 0.300000 0.600000 0.000000
-0.012348 -0.012912 0.195923 0.000000 1.000000 0.000000
0.123538 0.833103 0.071635 0.300000 0.600000 0.000000
0.132774 0.019377 0.431073 0.000000 1.000000 0.000000
0.183017 0.025515 0.324096 0.000000 1.000000 0.000000
0.147281 0.326340 -0.012630 0.300000 0.600000 0.000000
0.024908 0.701435 0.102672 0.300000 0.600000 0.000000
0.116508 -0.066351 0.196506 0.000000 1.000000 0.000000
0.162895 -0.216690 -0.203872 0.300000 0.600000 0.000000
-0.230329 -0.031345 0.332288 0.000000 1.000000 0.000000
0.099063 0.057088 0.310974 0.000000 1.000000 0.000000
0.112185 -0.049710 -0.318242 0.300000 0.600000 0.000000
-0.011754 0.060491 0.200113 0.300000 0.600000 0.000000
0.015357 -0.264254 0.054392 0.300000 0.600000 0.000000
-0.038702 0.050069 0.499184 0.000000 1.000000 0.000000
0.119464 -0.106085 -0.298579 0.300000 0.600000 0.000000
0.111673 0.290058 0.036993 0.300000 0.600000 0.000000
0.175870 -0.231931 -0.134508 0.300000 0.600000 0.000000
-0.061968 -0.026275 0.508293 0.000000 1.000000 0.000000
-0.000930 0.307874 -0.265326 0.300000 0.600000 0.000000
0.124341 0.132185 -0.267082 0.300000 0.600000 0.000000
-0.009992 0.512640 0.003563 0.300000 0.600000 0.000000
-0.111757 0.201924 0.060427 0.300000 0.600000 0.000000
-0.154916 -0.226875 0.023286 0.300000 0.600000 0.000000
-0.007264 -0.074849 0.206294 0.300000 0.600000 0.000000
0.096951 0.792801 0.077181 0.300000 0.600000 0.000000
-0.045021 0.176763 -0.261268 0.300000 0.600000 0.000000
0.183789 0.022268 -0.300329 0.300000 0.600000 0.000000
-0.082030 0.326379 -0.017579 0.300000 0.600000 0.000000
-0.107676 0.234754 0.033502 0.300000 0.600000 0.000000
0.036700 0.088131 -0.446331 0.000000 0.500000 0.500000
-0.015513 -0.085135 0.396793 0.000000 1.000000 0.000000
-0.085611 -0.635268 -0.010084 0.300000 0.600000 0.000000
-0.155681 0.290076 -0.041536 0.300000 0.600000 0.000000
-0.009234 -0.182714 -0.299472 0.300000 0.600000 0.000000
0.051672 0.133726 0.126965 0.000000 1.000000 0.000000
-0.278190 -0.084146 -0.065219 0.300000 0.600000 0.000000
0.119396 -0.062416 0.160360 0.000000 1.000000 0.000000
0.064682 -0.160466 0.277001 0.000000 1.000000 0.000000
-0.246287 -0.159285 -0.074076 0.300000 0.600000 0.000000
-0.018760 -0.759738 -0.125417 0.300000 0.600000 0.000000
-0.193248 -0.144183 -0.244251 0.300000 0.600000 0.000000
0.001037 0.905809 0.067893 0.300000 0.600000 0.000000
-0.242912 -0.121057 0.024086 0.300000 0.600000 0.000000
-0.095636 -0.112441 0.445455 0.000000 1.000000 0.000000
0.025191 0.520677 0.001498 0.300000 0.600000 0.000000
0.060802 0.476325 -0.137480 0.300000 0.600000 0.000000
-0.107860 -0.012151 -0.426524 0.300000 0.600000 0.000000
-0.127914 -0.116564 0.278630 0.000000 1.000000 0.000000
-0.013382 -0.657270 -0.002381 0.300000 0.600000 0.000000
0.063549 -0.192895 -0.293709 0.300000 0.600000 0.000000
0.154256 0.089124 -0.272610 0.300000 0.600000 0.000000
0.037996 0.111940 0.310574 0.000000 1.000000 0.000000
-0.138307 -0.060291 0.407567 0.000000 1.000000 0.000000
-0.090342 0.176905 -0.260642 0.300000 0.600000 0.000000
-0.168862 -0.520562 -0.022350 0.300000 0.600000 0.000000
-0.015390 -0.145378 0.461735 0.000000 1.000000 0.000000
-0.100636 0.093900 0.265457 0.000000 1.000000 0.000000
0.219067 0.131246 -0.195687 0.300000 0.600000 0.000000
-0.237697 -0.143501 -0.168423 0.300000 0.600000 0.000000
-0.246046 0.026063 -0.217254 0.300000 0.600000 0.000000
-0.186737 -0.065812 0.381512 0.000000 1.000000 0.000000
0.266382 0.002182 -0.198991 0.300000 0.600000 0.000000
0.113121 0.093566 0.137323 0.000000 1.000000 0.000000
0.000467 0.732317 0.095858 0.300000 0.600000 0.000000
0.083964 0.326361 0.023544 0.300000 0.600000 0.000000
0.081178 -0.634828 0.006412 0.300000 0.600000 0.000000
-0.030814 0.835695 0.091097 0.300000 0.600000 0.000000
-0.026710 0.871435 0.079627 0.300000 0.600000 0.000000
0.018204 0.094206 -0.316051 0.300000 0.600000 0.000000
0.204139 0.077267 0.107184 0.300000 0.600000 0.000000
0.024964 0.385503 -0.159874 0.300000 0.600000 0.000000
0.026727 -0.101742 0.310574 0.000000 1.000000 0.000000
-0.093229 -0.103482 0.152012 0.000000 1.000000 0.000000
-0.000436 0.873960 0.082092 0.300000 0.600000 0.000000
0.088042 0.101833 0.150562 0.000000 1.000000 0.000000
-0.129767 0.803188 0.040417 0.300000 0.600000 0.000000
0.023126 -0.279625 0.371983 0.000000 1.000000 0.000000
-0.071766 0.528664 -0.032575 0.300000 0.600000 0.000000
0.067013 0.071538 -0.389304 0.300000 0.600000 0.000000
0.004037 0.065717 0.292560 0.000000 1.000000 0.000000
0.122178 -0.292844 -0.070231 0.300000 0.600000 0.000000
-0.073198 0.932009 0.054812 0.300000 0.600000 0.000000
0.143539 -0.249941 -0.128074 0.300000 0.600000 0.000000
0.088610 -0.146651 0.276933 0.000000 1.000000 0.000000
0.003082 -0.425762 0.091726 0.300000 0.600000 0.000000
0.017552 -0.160026 0.310574 0.000000 1.000000 0.000000
-0.077865 0.018567 0.310574 0.000000 1.000000 0.000000
-0.271420 -0.098082 -0.051283 0.300000 0.600000 0.000000
-0.171531 -0.443615 -0.070167 0.300000 0.600000 0.000000
-0.177810 -0.211434 0.025644 0.300000 0.600000 0.000000
-0.044843 0.241414 0.360597 0.000000 1.000000 0.000000
0.019067 -0.680921 -0.148280 0.300000 0.600000 0.000000
-0.069542 -0.600253 0.046803 0.300000 0.600000 0.000000
-0.063351 -0.351395 -0.176244 0.300000 0.600000 0.000000
0.062470 0.191419 -0.259792 0.300000 0.600000 0.000000
0.097307 -0.005304 0.482866 0.000000 1.000000 0.000000
0.214462 -0.055749 -0.274079 0.300000 0.600000 0.000000
-0.179182 0.307915 -0.110396 0.300000 0.600000 0.000000
0.035025 -0.018375 0.211311 0.300000 0.600000 0.000000
0.053698 0.121455 0.441858 0.000000 1.000000 0.000000
0.032484 0.421142 -0.000072 0.300000 0.600000 0.000000
0.231051 0.009398 0.098801 0.300000 0.600000 0.000000
0.034386 -0.249070 0.425383 0.000000 1.000000 0.000000
0.016874 0.090760 -0.385741 0.300000 0.600000 0.000000
-0.121330 0.326362 -0.104379 0.300000 0.600000 0.000000
-0.259790 0.071317 -0.002146 0.300000 0.600000 0.000000
0.047284 0.582539 -0.016025 0.300000 0.600000 0.000000
-0.137513 -0.063430 -0.327308 0.300000 0.600000 0.000000
0.036004 0.139290 0.379300 0.000000 1.000000 0.000000
-0.130313 0.897322 0.024483 0.300000 0.600000 0.000000
0.011079 0.363019 -0.162810 0.300000 0.600000 0.000000
-0.035008 -0.145383 -0.332721 0.300000 0.600000 0.000000
-0.053540 -0.123254 -0.435502 0.300000 0.600000 0.000000
-0.038645 -0.740861 -0.036037 0.300000 0.600000 0.000000
0.091459 -0.197181 -0.265344 0.300000 0.600000 0.000000
0.160257 0.323123 -0.168757 0.300000 0.600000 0.000000
-0.045708 -0.757299 -0.094360 0.300000 0.600000 0.000000
-0.197617 -0.184569 0.034940 0.300000 0.600000 0.000000
0.101603 -0.249406 0.034517 0.300000 0.600000 0.000000
0.101523 -0.045083 -0.476494 0.000000 0.500000 0.500000
-0.087575 -0.416224 -0.214440 0.300000 0.600000 0.000000
0.077889 -0.467246 0.088186 0.300000 0.600000 0.000000
0.144293 -0.040911 0.310574 0.000000 1.000000 0.000000
-0.082967 -0.540639 0.078067 0.300000 0.600000 0.000000
-0.255327 -0.056457 -0.196833 0.300000 0.600000 0.000000
-0.179791 0.313262 -0.055334 0.300000 0.600000 0.000000
-0.173578 -0.014219 -0.306956 0.300000 0.600000 0.000000
0.065190 -0.177851 0.151366 0.300000 0.600000 0.000000
-0.033743 -0.010353 0.310574 0.000000 1.000000 0.000000
-0.130613 0.108412 -0.275365 0.300000 0.600000 0.000000
0.003257 -0.105305 0.198528 0.300000 0.600000 0.000000
-0.083673 -0.087941 -0.442276 0.300000 0.600000 0.000000
0.164666 -0.241510 -0.061015 0.300000 0.600000 0.000000
-0.174425 0.295612 -0.048758 0.300000 0.600000 0.000000
0.139701 0.242763 -0.147080 0.300000 0.600000 0.000000
-0.131737 -0.458279 -0.196279 0.300000 0.600000 0.000000
0.174093 -0.559701 -0.063479 0.300000 0.600000 0.000000
-0.177431 0.172297 -0.187072 0.300000 0.600000 0.000000
0.029629 -0.113394 -0.443113 0.000000 0.500000 0.500000
0.114818 -0.131520 0.297586 0.000000 1.000000 0.000000
-0.021898 1.007170 -0.021833 0.300000 0.600000 0.000000
-0.053396 0.120108 0.416936 0.000000 1.000000 0.000000
-0.148068 -0.588843 -0.067488 0.300000 0.600000 0.000000
0.043457 0.100235 -0.336564 0.300000 0.600000 0.000000
-0.044580 0.139557 0.335033 0.000000 1.000000 0.000000
-0.107946 0.285211 -0.168762 0.300000 0.600000 0.000000
-0.060375 0.326341 0.063563 0.300000 0.600000 0.000000
-0.086496 -0.202890 0.118288 0.300000 0.600000 0.000000
0.124143 0.179479 -0.241223 0.300000 0.600000 0.000000
0.160413 0.062725 -0.288794 0.300000 0.600000 0.000000
-0.177996 0.198092 -0.057408 0.300000 0.600000 0.000000
-0.052709 0.578412 0.018133 0.300000 0.600000 0.000000
0.110072 -0.129335 0.376919 0.000000 1.000000 0.000000
-0.072243 0.467855 -0.050540 0.300000 0.600000 0.000000
-0.068006 -0.162966 0.310574 0.000000 1.000000 0.000000
-0.261025 0.051879 -0.171565 0.300000 0.600000 0.000000
-0.077163 -0.008704 0.293723 0.000000 1.000000 0.000000
0.222664 0.084400 -0.234061 0.300000 0.600000 0.000000
0.061668 -0.361995 0.033103 0.300000 0.600000 0.000000
-0.072248 -0.018291 0.310574 0.000000 1.000000 0.000000
-0.092737 -0.045518 0.321238 0.000000 1.000000 0.000000
-0.217551 -0.029888 0.400183 0.000000 1.000000 0.000000
0.271486 0.086542 -0.097795 0.300000 0.600000 0.000000
-0.072350 0.122099 0.345176 0.000000 1.000000 0.000000
-0.004950 0.205901 0.333117 0.000000 1.000000 0.000000
-0.106269 0.063973 0.424384 0.000000 1.000000 0.000000
-0.145069 -0.034797 0.294309 0.000000 1.000000 0.000000
-0.216482 0.112808 0.054876 0.300000 0.600000 0.000000
-0.038112 0.120118 -0.323334 0.300000 0.600000 0.000000
-0.048570 -0.684059 -0.128755 0.300000 0.600000 0.000000
-0.012910 -0.099230 0.179856 0.000000 1.000000 0.000000
0.006117 -0.143417 -0.359319 0.300000 0.600000 0.000000
-0.236187 0.129973 -0.118233 0.300000 0.600000 0.000000
-0.076044 -0.022380 0.493420 0.000000 1.000000 0.000000
0.026561 0.089169 0.310574 0.000000 1.000000 0.000000
0.095887 0.812753 0.095253 0.300000 0.600000 0.000000
0.037494 -0.601551 0.062156 0.300000 0.600000 0.000000
0.033047 -0.097072 0.179725 0.000000 1.000000 0.000000
0.085569 -0.042072 -0.355734 0.300000 0.600000 0.000000
0.058492 0.412460 -0.014907 0.300000 0.600000 0.000000
-0.057389 -0.090660 0.485690 0.000000 1.000000 0.000000
0.018303 -0.247901 0.355314 0.000000 1.000000 0.000000
-0.014973 0.560857 -0.102237 0.300000 0.600000 0.000000
0.019855 -0.007856 0.310574 0.000000 1.000000 0.000000
-0.128089 0.016507 0.396581 0.000000 1.000000 0.000000
0.295165 -0.021168 -0.096040 0.300000 0.600000 0.000000
-0.051317 0.063579 0.240316 0.000000 1.000000 0.000000
-0.090158 0.017854 0.192402 0.300000 0.600000 0.000000
-0.232519 0.140066 -0.087272 0.300000 0.600000 0.000000
0.245781 -0.156703 -0.003252 0.300000 0.600000 0.000000
-0.102484 0.949867 0.013133 0.300000 0.600000 0.000000
-0.207186 -0.019938 0.123160 0.300000 0.600000 0.000000
0.163756 -0.544206 -0.154334 0.300000 0.600000 0.000000
-0.145069 -0.016983 0.283737 0.000000 1.000000 0.000000
-0.094952 -0.117847 -0.327928 0.300000 0.600000 0.000000
0.129150 -0.365083 -0.056352 0.300000 0.600000 0.000000
0.136355 0.212320 -0.190032 0.300000 0.600000 0.000000
0.017293 0.551030 0.018574 0.300000 0.600000 0.000000
0.004955 0.641213 0.076744 0.300000 0.600000 0.000000
-0.119058 -0.157373 0.142280 0.300000 0.600000 0.000000
0.136672 -0.041610 0.434840 0.000000 1.000000 0.000000
-0.099072 0.067427 0.299542 0.000000 1.000000 0.000000
0.020684 0.145472 0.357062 0.000000 1.000000 0.000000
0.145684 0.016825 0.449852 0.000000 1.000000 0.000000
-0.049537 0.087462 0.305912 0.000000 1.000000 0.000000
0.071790 0.289997 0.079091 0.300000 0.600000 0.000000
0.000002 0.173328 0.418102 0.000000 1.000000 0.000000
-0.046192 -0.392400 0.060080 0.300000 0.600000 0.000000
0.152415 0.248539 -0.070428 0.300000 0.600000 0.000000
0.159475 -0.473819 0.019877 0.300000 0.600000 0.000000
-0.018648 -0.277778 -0.199660 0.300000 0.600000 0.000000
-0.133263 -0.059716 0.436859 0.000000 1.000000 0.000000
-0.267346 0.065988 -0.033309 0.300000 0.600000 0.000000
-0.016190 0.582396 -0.005337 0.300000 0.600000 0.000000
0.265587 -0.081862 -0.186088 0.300000 0.600000 0.000000
-0.070887 -0.084417 -0.495020 0.000000 0.500000 0.500000
0.062820 0.829806 0.085941 0.300000 0.600000 0.000000
0.044733 -0.194849 0.423623 0.000000 1.000000 0.000000
0.142488 -0.548951 0.028742 0.300000 0.600000 0.000000
0.286756 -0.036922 -0.011673 0.300000 0.600000 0.000000
0.061275 0.060364 0.273970 0.000000 1.000000 0.000000
0.054053 0.310365 -0.259098 0.300000 0.600000 0.000000
0.114950 0.801228 0.062885 0.300000 0.600000 0.000000
0.069506 0.767414 0.106888 0.300000 0.600000 0.000000
0.025316 -0.279008 -0.199431 0.300000 0.600000 0.000000
0.171095 -0.204494 0.058322 0.300000 0.600000 0.000000
0.191157 -0.066822 -0.272530 0.300000 0.600000 0.000000
-0.207604 -0.125247 -0.238317 0.300000 0.600000 0.000000
0.057380 0.109527 0.161935 0.000000 1.000000 0.000000
0.024088 -0.132037 -0.340924 0.300000 0.600000 0.000000
0.090725 -0.170815 -0.290204 0.300000 0.600000 0.000000
-0.054816 -0.327732 0.019738 0.300000 0.600000 0.000000
0.035295 0.038832 -0.500165 0.000000 0.500000 0.500000
0.049008 -0.222971 0.319538 0.000000 1.000000 0.000000
0.129233 0.041712 0.421518 0.000000 1.000000 0.000000
0.024347 1.004496 -0.018398 0.300000 0.600000 0.000000
-0.068884 0.629869 0.049088 0.300000 0.600000 0.000000
-0.152795 0.077459 -0.271396 0.300000 0.600000 0.000000
0.077589 -0.144146 0.451712 0.000000 1.000000 0.000000
0.025273 -0.642654 0.023423 0.300000 0.600000 0.000000
-0.002557 -0.189662 0.328393 0.000000 1.000000 0.000000
0.290065 -0.027775 -0.128172 0.300000 0.600000 0.000000
-0.145069 -0.089568 0.277533 0.000000 1.000000 0.000000
-0.073020 0.062241 0.244739 0.000000 1.000000 0.000000
0.045968 -0.378163 0.052066 0.300000 0.600000 0.000000
0.045522 0.007840 -0.500165 0.000000 0.500000 0.500000
0.016792 -0.068654 0.191263 0.000000 1.000000 0.000000
0.055672 -0.076032 0.337893 0.000000 1.000000 0.000000
-0.143797 0.049390 0.260086 0.000000 1.000000 0.000000
-0.181589 -0.055761 0.139423 0.300000 0.600000 0.000000
-0.052725 -0.001750 0.189602 0.000000 1.000000 0.000000
-0.216561 0.124078 -0.193299 0.300000 0.600000 0.000000
0.053642 -0.215959 -0.261311 0.300000 0.600000 0.000000
-0.109160 0.053465 0.440446 0.000000 1.000000 0.000000
0.052883 -0.129795 0.255465 0.000000 1.000000 0.000000
0.060182 0.243535 -0.217981 0.300000 0.600000 0.000000
-0.128029 -0.001801 0.167036 0.000000 1.000000 0.000000
0.099241 0.082746 0.299542 0.000000 1.000000 0.000000
0.129733 -0.091408 0.141867 0.000000 1.000000 0.000000
0.100992 -0.040297 0.264171 0.000000 1.000000 0.000000
0.109178 -0.357075 -0.014240 0.300000 0.600000 0.000000
-0.264504 -0.013118 -0.186056 0.300000 0.600000 0.000000
-0.100756 -0.545088 0.062795 0.300000 0.600000 0.000000
-0.022732 0.221011 0.313870 0.000000 1.000000 0.000000
-0.042021 0.303058 0.103384 0.300000 0.600000 0.000000
0.028597 -0.698372 -0.009696 0.300000 0.600000 0.000000
-0.055503 0.989800 0.009989 0.300000 0.600000 0.000000
0.268230 -0.107838 -0.000161 0.300000 0.600000 0.000000
0.109982 -0.231778 0.068275 0.300000 0.600000 0.000000
-0.225928 -0.183446 -0.060257 0.300000 0.600000 0.000000
0.100918 0.054101 0.161526 0.000000 1.000000 0.000000
0.114572 0.052693 0.451870 0.000000 1.000000 0.000000
-0.081068 0.650272 0.028991 0.300000 0.600000 0.000000
0.256277 -0.069128 0.057075 0.300000 0.600000 0.000000
0.009733 0.101347 0.271534 0.000000 1.000000 0.000000
0.238131 0.070430 -0.223329 0.300000 0.600000 0.000000
0.024799 0.359561 0.005442 0.300000 0.600000 0.000000
0.267490 -0.048682 0.036979 0.300000 0.600000 0.000000
0.162247 -0.126920 -0.291541 0.300000 0.600000 0.000000
-0.252140 -0.139513 -0.035195 0.300000 0.600000 0.000000
-0.046844 0.542225 -0.014852 0.300000 0.600000 0.000000
0.040511 -0.119037 0.188315 0.300000 0.600000 0.000000
0.279751 -0.038250 -0.166767 0.300000 0.600000 0.000000
0.103981 -0.609710 0.017717 0.300000 0.600000 0.000000
-0.136244 -0.253335 -0.053429 0.300000 0.600000 0.000000
-0.066593 0.115697 0.168509 0.300000 0.600000 0.000000
-0.283224 0.005485 -0.061011 0.300000 0.600000 0.000000
0.078584 0.026962 0.289012 0.000000 1.000000 0.000000
0.022938 -0.085857 -0.500165 0.000000 0.500000 0.500000
0.045055 -0.111490 0.310574 0.000000 1.000000 0.000000
-0.063983 0.697935 0.068366 0.300000 0.600000 0.000000
0.093371 0.177690 0.106487 0.300000 0.600000 0.000000
0.020406 -0.531224 -0.257626 0.300000 0.600000 0.000000
-0.074909 0.248424 0.046886 0.300000 0.600000 0.000000
0.080108 0.425937 -0.111316 0.300000 0.600000 0.000000
0.015976 0.002031 0.195383 0.000000 1.000000 0.000000
-0.139950 0.233152 -0.141934 0.300000 0.600000 0.000000
-0.130747 0.077990 0.158887 0.300000 0.600000 0.000000
0.190551 -0.498705 -0.076342 0.300000 0.600000 0.000000
-0.194249 -0.189112 -0.189872 0.300000 0.600000 0.000000
0.013094 -0.001715 0.517985 0.000000 1.000000 0.000000
-0.034189 0.336119 -0.156617 0.300000 0.600000 0.000000
-0.054708 -0.670449 -0.104830 0.300000 0.600000 0.000000
-0.267762 -0.019645 0.023537 0.300000 0.600000 0.000000
-0.218799 -0.058629 0.412607 0.000000 1.000000 0.000000
0.282190 0.065119 -0.083896 0.300000 0.600000 0.000000
0.083818 -0.086108 -0.443113 0.000000 0.500000 0.500000
-0.081215 0.095731 0.430663 0.000000 1.000000 0.000000
0.198541 -0.207756 -0.164261 0.300000 0.600000 0.000000
0.091831 -0.150968 -0.308917 0.300000 0.600000 0.000000
-0.011916 0.142556 0.310574 0.000000 1.000000 0.000000
0.253926 -0.005838 0.333779 0.000000 1.000000 0.000000
0.080828 0.015590 0.302541 0.000000 1.000000 0.000000
-0.275298 -0.086651 -0.110078 0.300000 0.600000 0.000000
0.056170 0.649197 0.048282 0.300000 0.600000 0.000000
-0.027008 -0.001373 -0.443113 0.000000 0.500000 0.500000
-0.083727 0.055636 0.201972 0.000000 1.000000 0.000000
0.103336 0.103638 0.356053 0.000000 1.000000 0.000000
-0.000284 0.163482 -0.297742 0.300000 0.600000 0.000000
-0.263075 -0.110020 -0.025461 0.300000 0.600000 0.000000
0.121227 -0.338887 -0.077475 0.300000 0.600000 0.000000
-0.010629 0.389556 0.004562 0.300000 0.600000 0.000000
-0.106221 -0.132150 0.132214 0.000000 1.000000 0.000000
-0.116872 -0.026731 -0.359283 0.300000 0.600000 0.000000
0.053795 0.939719 0.036836 0.300000 0.600000 0.000000
0.066999 0.579775 -0.060396 0.300000 0.600000 0.000000
-0.062172 -0.410850 0.068654 0.300000 0.600000 0.000000
-0.064566 -0.097470 0.228652 0.000000 1.000000 0.000000
-0.036847 0.651055 0.077187 0.300000 0.600000 0.000000
-0.052905 0.434862 -0.044857 0.300000 0.600000 0.000000
0.011382 -0.223433 0.116253 0.300000 0.600000 0.000000
0.125716 0.287151 -0.161754 0.300000 0.600000 0.000000
0.057880 -0.023010 0.517985 0.000000 1.000000 0.000000
0.081407 -0.037919 0.328381 0.000000 1.000000 0.000000
0.037983 0.411986 -0.153692 0.300000 0.600000 0.000000
0.185129 0.138185 0.077640 0.300000 0.600000 0.000000
0.154913 0.028588 0.165615 0.300000 0.600000 0.000000
0.231406 0.109631 -0.203784 0.300000 0.600000 0.000000
0.090513 0.086038 0.260086 0.000000 1.000000 0.000000
-0.207129 0.108338 -0.225911 0.300000 0.600000 0.000000
0.103207 0.087105 0.427047 0.000000 1.000000 0.000000
0.114843 0.032460 0.257088 0.000000 1.000000 0.000000
-0.105029 -0.395385 0.024234 0.300000 0.600000 0.000000
-0.081263 -0.575349 -0.217522 0.300000 0.600000 0.000000
0.061512 -0.724136 -0.126000 0.300000 0.600000 0.000000
0.063340 -0.456520 0.092697 0.300000 0.600000 0.000000
-0.059149 0.833812 0.082521 0.300000 0.600000 0.000000
0.009689 -0.017602 0.214615 0.300000 0.600000 0.000000
-0.177490 -0.520642 -0.085375 0.300000 0.600000 0.000000
-0.075368 -0.046956 0.285743 0.000000 1.000000 0.000000
0.070431 0.215518 -0.235288 0.300000 0.600000 0.000000
-0.017745 -0.644078 -0.176864 0.300000 0.600000 0.000000
0.116450 0.163067 -0.268097 0.300000 0.600000 0.000000
-0.016465 -0.030667 0.195044 0.000000 1.000000 0.000000
0.069624 -0.043845 0.186564 0.000000 1.000000 0.000000
-0.039849 -0.062661 0.203609 0.300000 0.600000 0.000000
0.203052 -0.086169 0.125162 0.300000 0.600000 0.000000
-0.030253 0.416786 -0.002941 0.300000 0.600000 0.000000
0.116241 -0.584383 0.033333 0.300000 0.600000 0.000000
-0.116470 -0.099999 0.260086 0.000000 1.000000 0.000000
0.059734 -0.069633 0.353446 0.000000 1.000000 0.000000
0.087566 -0.150429 0.131485 0.000000 1.000000 0.000000
-0.119961 -0.080429 0.260086 0.000000 1.000000 0.000000
-0.063701 -0.000626 0.361546 0.000000 1.000000 0.000000
-0.107363 -0.129213 0.161903 0.300000 0.600000 0.000000
-0.075440 0.172115 -0.273294 0.300000 0.600000 0.000000
0.004878 -0.167966 0.147518 0.000000 1.000000 0.000000
-0.026365 0.433014 -0.019501 0.300000 0.600000 0.000000
-0.149372 0.237773 -0.062244 0.300000 0.600000 0.000000
0.122092 -0.010658 0.456405 0.000000 1.000000 0.000000
-0.066723 0.326383 -0.006071 0.300000 0.600000 0.000000
0.200503 0.129409 -0.224402 0.300000 0.600000 0.000000
0.132360 -0.578303 0.019924 0.300000 0.600000 0.000000
0.081383 -0.083589 -0.351602 0.300000 0.600000 0.000000
0.099711 0.290076 -0.207767 0.300000 0.600000 0.000000
0.085961 -0.083109 -0.483617 0.000000 0.500000 0.500000
-0.021334 -0.541479 -0.253331 0.300000 0.600000 0.000000
-0.070568 0.213880 -0.232513 0.300000 0.600000 0.000000
-0.059486 -0.292872 0.020900 0.300000 0.600000 0.000000
-0.075718 -0.648501 -0.127362 0.300000 0.600000 0.000000
0.134932 0.326335 0.020348 0.300000 0.600000 0.000000
-0.017182 -0.113466 0.284540 0.000000 1.000000 0.000000
-0.063571 0.226142 0.070454 0.300000 0.600000 0.000000
-0.045278 0.124093 0.310574 0.000000 1.000000 0.000000
0.039155 -0.114423 -0.411247 0.300000 0.600000 0.000000
0.265254 -0.123651 -0.142320 0.300000 0.600000 0.000000
-0.204617 -0.026039 -0.281031 0.300000 0.600000 0.000000
-0.157260 0.326335 -0.094924 0.300000 0.600000 0.000000
-0.204506 0.077190 -0.250342 0.300000 0.600000 0.000000
-0.217537 0.050707 -0.251140 0.300000 0.600000 0.000000
0.023903 0.149500 -0.281359 0.300000 0.600000 0.000000
0.229351 0.104076 0.056242 0.300000 0.600000 0.000000
-0.003746 0.115706 -0.303370 0.300000 0.600000 0.000000
-0.151361 0.839687 0.029825 0.300000 0.600000 0.000000
0.274006 -0.109542 -0.035599 0.300000 0.600000 0.000000
0.114420 -0.119750 0.148737 0.000000 1.000000 0.000000
-0.222047 -0.102449 -0.234873 0.300000 0.600000 0.000000
-0.033894 -0.132355 0.297099 0.000000 1.000000 0.000000
-0.064196 0.565903 -0.038560 0.300000 0.600000 0.000000
0.062698 0.023561 0.375461 0.000000 1.000000 0.000000
-0.149019 -0.483255 -0.179111 0.300000 0.600000 0.000000
-0.055421 0.075589 -0.379935 0.300000 0.600000 0.000000
-0.088661 -0.051848 0.241686 0.000000 1.000000 0.000000
0.030762 0.132406 0.423618 0.000000 1.000000 0.000000
0.259444 0.104005 -0.021513 0.300000 0.600000 0.000000
0.065172 0.121600 0.310574 0.000000 1.000000 0.000000
-0.086590 0.842964 0.088417 0.300000 0.600000 0.000000
-0.110516 0.930762 -0.003018 0.300000 0.600000 0.000000
-0.018336 0.490415 -0.016946 0.300000 0.600000 0.000000
0.190493 -0.156431 -0.248937 0.300000 0.600000 0.000000
0.027773 -0.619453 -0.205226 0.300000 0.600000 0.000000
-0.126713 0.307465 -0.212136 0.300000 0.600000 0.000000
0.007755 -0.624636 0.047198 0.300000 0.600000 0.000000
0.125443 0.326355 -0.145611 0.300000 0.600000 0.000000
0.074266 0.524543 -0.034847 0.300000 0.600000 0.000000
-0.134859 0.031914 0.328885 0.000000 1.000000 0.000000
-0.070539 0.119359 -0.307769 0.300000 0.600000 0.000000
-0.277532 0.035260 -0.047549 0.300000 0.600000 0.000000
0.068757 0.569465 -0.012040 0.300000 0.600000 0.000000
0.000733 -0.142155 0.299542 0.000000 1.000000 0.000000
0.088912 -0.067236 -0.443113 0.000000 0.500000 0.500000
-0.155858 -0.085594 -0.286979 0.300000 0.600000 0.000000
-0.082592 -0.077421 0.226891 0.000000 1.000000 0.000000
0.072129 0.121404 -0.310752 0.300000 0.600000 0.000000
-0.085546 -0.085139 0.210352 0.000000 1.000000 0.000000
-0.049281 0.110996 0.156962 0.000000 1.000000 0.000000
0.172123 -0.430478 -0.111217 0.300000 0.600000 0.000000
-0.076423 -0.108070 0.310574 0.000000 1.000000 0.000000
-0.102999 0.092535 0.282596 0.000000 1.000000 0.000000
0.126898 -0.232829 0.052909 0.300000 0.600000 0.000000
-0.279048 0.030064 -0.101960 0.300000 0.600000 0.000000
-0.069317 -0.638410 -0.158490 0.300000 0.600000 0.000000
0.043606 -0.187436 0.392733 0.000000 1.000000 0.000000
0.003354 0.116696 0.167774 0.000000 1.000000 0.000000
0.115926 -0.607026 -0.161276 0.300000 0.600000 0.000000
-0.098914 0.925279 0.008193 0.300000 0.600000 0.000000
0.039323 -0.226869 0.107399 0.300000 0.600000 0.000000
-0.158963 -0.432833 -0.130443 0.300000 0.600000 0.000000
0.041841 0.815262 0.095866 0.300000 0.600000 0.000000
-0.011348 0.579775 -0.076562 0.300000 0.600000 0.000000
0.023404 0.654457 0.060730 0.300000 0.600000 0.000000
0.060403 -0.604713 -0.207188 0.300000 0.600000 0.000000
0.119270 -0.633436 -0.089465 0.300000 0.600000 0.000000
-0.192750 0.175612 -0.014289 0.300000 0.600000 0.000000
0.016362 -0.389816 -0.222633 0.300000 0.600000 0.000000
-0.151090 -0.027119 0.446761 0.000000 1.000000 0.000000
0.158030 -0.016771 0.439360 0.000000 1.000000 0.000000
0.156323 0.184861 -0.203067 0.300000 0.600000 0.000000
0.039848 -0.039278 0.193031 0.000000 1.000000 0.000000
-0.042515 -0.100798 -0.486442 0.000000 0.500000 0.500000
-0.239231 -0.032360 0.365449 0.000000 1.000000 0.000000
-0.059069 -0.420858 -0.231599 0.300000 0.600000 0.000000
0.049969 -0.229293 0.400172 0.000000 1.000000 0.000000
-0.010153 -0.205895 -0.270052 0.300000 0.600000 0.000000
0.235084 0.031451 0.398355 0.000000 1.000000 0.000000
-0.073750 -0.201816 -0.263065 0.300000 0.600000 0.000000
-0.057986 -0.020627 -0.443113 0.000000 0.500000 0.500000
-0.087635 -0.224717 -0.247062 0.300000 0.600000 0.000000
0.166372 0.128081 0.107509 0.300000 0.600000 0.000000
-0.276082 0.050467 -0.104090 0.300000 0.600000 0.000000
0.142897 -0.040305 0.162575 0.000000 1.000000 0.000000
0.107102 -0.498377 0.076077 0.300000 0.600000 0.000000
0.185495 -0.014499 -0.283887 0.300000 0.600000 0.000000
0.130466 -0.041510 -0.354369 0.300000 0.600000 0.000000
-0.139475 0.733057 0.019204 0.300000 0.600000 0.000000
0.073230 0.943845 0.023276 0.300000 0.600000 0.000000
0.017839 -0.045092 0.210056 0.300000 0.600000 0.000000
0.029533 -0.168654 0.437191 0.000000 1.000000 0.000000
-0.041294 0.723838 0.087679 0.300000 0.600000 0.000000
0.036999 -0.443063 0.094853 0.300000 0.600000 0.000000
0.045077 0.326336 -0.236123 0.300000 0.600000 0.000000
0.083143 0.477413 -0.101269 0.300000 0.600000 0.000000
0.233902 0.134900 -0.152608 0.300000 0.600000 0.000000
0.075033 -0.058218 0.320224 0.000000 1.000000 0.000000
-0.128122 0.038010 -0.296281 0.300000 0.600000 0.000000
0.224245 -0.106786 -0.241331 0.300000 0.600000 0.000000
-0.008834 -0.309924 -0.191037 0.300000 0.600000 0.000000
-0.270539 0.064145 -0.051765 0.300000 0.600000 0.000000
-0.001619 -0.345166 0.039267 0.300000 0.600000 0.000000
0.125059 0.059259 0.173463 0.300000 0.600000 0.000000
-0.131837 -0.256656 -0.111205 0.300000 0.600000 0.000000
0.063098 -0.162704 0.402433 0.000000 1.000000 0.000000
-0.169431 0.070192 -0.264042 0.300000 0.600000 0.000000
-0.217969 0.133839 0.014662 0.300000 0.600000 0.000000
0.057555 -0.126980 -0.333962 0.300000 0.600000 0.000000
0.103470 -0.053173 -0.443113 0.000000 0.500000 0.500000
0.111857 -0.303995 -0.037115 0.300000 0.600000 0.000000
-0.000860 0.049706 0.397782 0.000000 1.000000 0.000000
-0.282419 -0.054251 -0.088388 0.300000 0.600000 0.000000
0.051358 -0.532948 0.097492 0.300000 0.600000 0.000000
-0.276559 0.004284 -0.009182 0.300000 0.600000 0.000000
0.101483 0.037047 0.188904 0.300000 0.600000 0.000000
0.038356 0.068177 0.174547 0.000000 1.000000 0.000000
0.042963 -0.186483 0.448629 0.000000 1.000000 0.000000
0.103866 0.012451 -0.406375 0.300000 0.600000 0.000000
0.119754 -0.214341 0.092191 0.300000 0.600000 0.000000
-0.050774 -0.232506 0.092599 0.300000 0.600000 0.000000
-0.030006 0.256451 0.382745 0.000000 1.000000 0.000000
-0.024101 -0.136183 0.312420 0.000000 1.000000 0.000000
-0.160784 -0.526837 -0.004987 0.300000 0.600000 0.000000
-0.059868 0.005252 0.376837 0.000000 1.000000 0.000000
-0.026407 0.080769 0.480706 0.000000 1.000000 0.000000
0.009886 -0.192529 0.430291 0.000000 1.000000 0.000000
0.111754 0.681490 0.059220 0.300000 0.600000 0.000000
-0.103777 0.294928 0.066740 0.300000 0.600000 0.000000
-0.056433 -0.116135 -0.342015 0.300000 0.600000 0.000000
-0.020325 -0.119736 0.482497 0.000000 1.000000 0.000000
-0.018080 -0.663150 -0.143513 0.300000 0.600000 0.000000
-0.035878 -0.092782 0.293999 0.000000 1.000000 0.000000
0.266902 -0.134206 -0.096596 0.300000 0.600000 0.000000
0.069248 -0.169359 0.350835 0.000000 1.000000 0.000000
-0.075132 0.148432 -0.270800 0.300000 0.600000 0.000000
0.079741 -0.169808 0.152220 0.300000 0.600000 0.000000
0.001971 0.290069 -0.244813 0.300000 0.600000 0.000000
0.059350 0.238236 0.066638 0.300000 0.600000 0.000000
-0.095791 -0.610082 -0.171519 0.300000 0.600000 0.000000
0.049018 -0.066502 0.188656 0.000000 1.000000 0.000000
0.116016 -0.035186 -0.459122 0.000000 0.500000 0.500000
0.025575 -0.183045 0.269810 0.000000 1.000000 0.000000
0.036108 0.590698 0.008826 0.300000 0.600000 0.000000
0.056999 -0.275538 0.379468 0.000000 1.000000 0.000000
-0.109578 0.067204 0.152280 0.000000 1.000000 0.000000
0.206011 -0.146457 -0.238331 0.300000 0.600000 0.000000
0.155361 -0.397576 -0.066182 0.300000 0.600000 0.000000
0.046167 -0.204280 0.344655 0.000000 1.000000 0.000000
0.261226 0.033055 0.045079 0.300000 0.600000 0.000000
0.085253 0.129769 -0.295102 0.300000 0.600000 0.000000
-0.045859 -0.214008 -0.262506 0.300000 0.600000 0.000000
0.088109 -0.230842 0.084269 0.300000 0.600000 0.000000
0.017001 0.124977 0.152722 0.000000 1.000000 0.000000
0.170977 -0.477386 -0.001693 0.300000 0.600000 0.000000
-0.103731 0.094556 0.329566 0.000000 1.000000 0.000000
-0.055416 0.295196 0.093133 0.300000 0.600000 0.000000
0.130835 -0.097262 0.310574 0.000000 1.000000 0.000000
-0.068847 0.001497 0.203075 0.300000 0.600000 0.000000
-0.110184 0.184920 -0.237347 0.300000 0.600000 0.000000
-0.163503 -0.424351 -0.069806 0.300000 0.600000 0.000000
-0.119149 -0.427743 -0.194480 0.300000 0.600000 0.000000
-0.059364 0.081529 0.264524 0.000000 1.000000 0.000000
-0.129051 0.049008 0.326877 0.000000 1.000000 0.000000
-0.064874 0.433975 -0.122405 0.300000 0.600000 0.000000
-0.021426 0.544911 -0.018226 0.300000 0.600000 0.000000
-0.104168 -0.339762 -0.038212 0.300000 0.600000 0.000000
-0.010960 -0.091036 0.310574 0.000000 1.000000 0.000000
-0.051065 0.122519 0.275027 0.000000 1.000000 0.000000
-0.027845 -0.131107 -0.428133 0.300000 0.600000 0.000000
-0.047735 0.226052 0.077084 0.300000 0.600000 0.000000
-0.129586 -0.378235 -0.099406 0.300000 0.600000 0.000000
0.113114 -0.144606 0.123614 0.000000 1.000000 0.000000
-0.072730 -0.200871 -0.281484 0.300000 0.600000 0.000000
0.048491 -0.174264 0.377840 0.000000 1.000000 0.000000
0.013245 -0.745278 -0.025722 0.300000 0.600000 0.000000
0.023780 0.882632 0.076844 0.300000 0.600000 0.000000
0.101721 -0.003654 0.284070 0.000000 1.000000 0.000000
0.104748 -0.084331 0.200757 0.000000 1.000000 0.000000
0.137201 -0.511153 -0.205588 0.300000 0.600000 0.000000
0.102699 0.263206 0.025914 0.300000 0.600000 0.000000
-0.030450 0.146730 0.358290 0.000000 1.000000 0.000000
-0.077024 0.567082 -0.074969 0.300000 0.600000 0.000000
0.036878 0.050504 0.202070 0.300000 0.600000 0.000000
0.284786 -0.061121 -0.134918 0.300000 0.600000 0.000000
-0.276448 -0.044878 -0.012720 0.300000 0.600000 0.000000
-0.017922 0.455591 -0.011635 0.300000 0.600000 0.000000
-0.088973 0.268718 0.026850 0.300000 0.600000 0.000000
0.006463 -0.702871 -0.009046 0.300000 0.600000 0.000000
-0.192003 0.183208 -0.054493 0.300000 0.600000 0.000000
0.091942 0.154648 -0.285659 0.300000 0.600000 0.000000
0.098887 -0.411100 0.052992 0.300000 0.600000 0.000000
0.016430 0.579775 -0.057926 0.300000 0.600000 0.000000
0.069018 0.325792 0.082628 0.300000 0.600000 0.000000
0.094484 0.032092 -0.409467 0.300000 0.600000 0.000000
0.036382 -0.725759 -0.010710 0.300000 0.600000 0.000000
-0.164637 -0.063293 0.429231 0.000000 1.000000 0.000000
0.001920 0.146728 -0.284199 0.300000 0.600000 0.000000
-0.191123 -0.057463 -0.261694 0.300000 0.600000 0.000000
0.051668 0.061771 -0.500165 0.000000 0.500000 0.500000
-0.131345 0.024128 0.140050 0.000000 1.000000 0.000000
0.121832 0.068552 0.393473 0.000000 1.000000 0.000000
-0.046117 -0.362968 -0.192108 0.300000 0.600000 0.000000
0.180246 -0.542203 -0.100665 0.300000 0.600000 0.000000
0.028727 0.086797 0.479075 0.000000 1.000000 0.000000
0.054293 0.138886 0.346599 0.000000 1.000000 0.000000
0.104435 0.696643 0.072222 0.300000 0.600000 0.000000
0.137022 -0.611699 -0.110959 0.300000 0.600000 0.000000
-0.238158 0.108139 -0.166395 0.300000 0.600000 0.000000
-0.126015 0.046135 0.352126 0.000000 1.000000 0.000000
0.054102 -0.137312 0.154652 0.000000 1.000000 0.000000
-0.174402 -0.229419 -0.028788 0.300000 0.600000 0.000000
0.056006 -0.571527 -0.235229 0.300000 0.600000 0.000000
-0.018773 0.078746 0.246850 0.000000 1.000000 0.000000
0.170532 0.219782 -0.103263 0.300000 0.600000 0.000000
0.212112 -0.210899 -0.102225 0.300000 0.600000 0.000000
0.110345 0.081162 0.410043 0.000000 1.000000 0.000000
-0.192373 0.101060 0.094220 0.300000 0.600000 0.000000
0.008423 0.140604 -0.315463 0.300000 0.600000 0.000000
-0.145816 -0.061147 0.363125 0.000000 1.000000 0.000000
-0.092251 0.082017 0.435196 0.000000 1.000000 0.000000
-0.091619 0.023648 0.224738 0.000000 1.000000 0.000000
-0.019171 0.570920 0.026934 0.300000 0.600000 0.000000
0.113828 0.326375 -0.093720 0.300000 0.600000 0.000000
0.046064 0.449122 -0.149482 0.300000 0.600000 0.000000
0.017160 0.242983 0.072781 0.300000 0.600000 0.000000
0.109654 -0.385111 -0.173446 0.300000 0.600000 0.000000
0.083506 -0.240451 -0.221574 0.300000 0.600000 0.000000
-0.135263 0.205144 0.032106 0.300000 0.600000 0.000000
0.123511 0.091586 -0.287230 0.300000 0.600000 0.000000
0.046726 0.094854 -0.363993 0.300000 0.600000 0.000000
-0.080746 0.260846 -0.192379 0.300000 0.600000 0.000000
-0.067914 0.079869 0.188237 0.000000 1.000000 0.000000
-0.048439 -0.098799 0.276092 0.000000 1.000000 0.000000
0.110972 -0.097893 0.151558 0.000000 1.000000 0.000000
0.004188 -0.118263 0.246720 0.000000 1.000000 0.000000
-0.068881 -0.561208 -0.230590 0.300000 0.600000 0.000000
0.150270 0.098707 -0.296590 0.300000 0.600000 0.000000
0.186634 0.297769 -0.100150 0.300000 0.600000 0.000000
0.231690 -0.169514 0.005300 0.300000 0.600000 0.000000
0.101523 -0.067527 -0.482418 0.000000 0.500000 0.500000
-0.016247 0.073951 -0.443113 0.000000 0.500000 0.500000
-0.080305 0.956342 -0.005875 0.300000 0.600000 0.000000
0.093699 -0.635560 -0.008941 0.300000 0.600000 0.000000
0.102933 0.085745 0.170855 0.300000 0.600000 0.000000
0.018249 -0.115011 0.305517 0.000000 1.000000 0.000000
0.131623 0.326360 -0.113305 0.300000 0.600000 0.000000
0.082218 -0.182407 -0.274817 0.300000 0.600000 0.000000
-0.113497 -0.158770 -0.277901 0.300000 0.600000 0.000000
-0.189358 -0.222897 -0.064780 0.300000 0.600000 0.000000
-0.121657 0.228862 -0.178106 0.300000 0.600000 0.000000
0.031259 0.040277 0.516681 0.000000 1.000000 0.000000
0.067945 0.487295 -0.026609 0.300000 0.600000 0.000000
-0.064946 -0.062189 0.200367 0.300000 0.600000 0.000000
0.074097 0.104794 0.158723 0.000000 1.000000 0.000000
-0.231325 0.128226 -0.006423 0.300000 0.600000 0.000000
0.001880 0.604073 0.027705 0.300000 0.600000 0.000000
-0.095380 -0.292076 -0.015002 0.300000 0.600000 0.000000
0.117060 -0.027261 -0.443283 0.000000 0.500000 0.500000
-0.089155 -0.433274 0.066222 0.300000 0.600000 0.000000
0.114567 -0.347190 -0.120485 0.300000 0.600000 0.000000
-0.037421 -0.178833 0.348804 0.000000 1.000000 0.000000
0.241102 -0.142855 0.027753 0.300000 0.600000 0.000000
0.165699 0.297048 -0.166515 0.300000 0.600000 0.000000
0.176496 -0.029980 -0.292685 0.300000 0.600000 0.000000
-0.036052 -0.083852 0.201319 0.300000 0.600000 0.000000
0.020700 0.108113 -0.350729 0.300000 0.600000 0.000000
-0.172857 0.307132 -0.019399 0.300000 0.600000 0.000000
0.131474 -0.094975 0.171028 0.300000 0.600000 0.000000
-0.015429 0.376674 -0.160219 0.300000 0.600000 0.000000
0.096167 0.952795 0.023682 0.300000 0.600000 0.000000
-0.116693 -0.093222 0.390686 0.000000 1.000000 0.000000
-0.051342 -0.159491 0.417003 0.000000 1.000000 0.000000
-0.070643 -0.140047 0.155145 0.000000 1.000000 0.000000
-0.088478 -0.646499 -0.048637 0.300000 0.600000 0.000000
0.069896 -0.052708 0.365590 0.000000 1.000000 0.000000
0.002606 0.615415 0.058115 0.300000 0.600000 0.000000
0.134191 -0.146514 0.146993 0.300000 0.600000 0.000000
0.126244 -0.005553 -0.364411 0.300000 0.600000 0.000000
0.191614 -0.110293 -0.277614 0.300000 0.600000 0.000000
-0.083240 -0.106763 0.187069 0.000000 1.000000 0.000000
0.061140 -0.158580 -0.322518 0.300000 0.600000 0.000000
-0.034318 0.045639 -0.357642 0.300000 0.600000 0.000000
-0.080750 0.820241 0.077125 0.300000 0.600000 0.000000
0.157877 -0.071927 0.297466 0.000000 1.000000 0.000000
0.053563 -0.409891 0.075323 0.300000 0.600000 0.000000
0.277390 -0.107866 -0.099806 0.300000 0.600000 0.000000
0.144728 0.315773 -0.198933 0.300000 0.600000 0.000000
0.129221 -0.067293 -0.333690 0.300000 0.600000 0.000000
0.206637 0.138149 -0.205485 0.300000 0.600000 0.000000
-0.046362 0.098087 -0.349959 0.300000 0.600000 0.000000
0.113828 0.784542 0.085670 0.300000 0.600000 0.000000
-0.108302 0.012516 -0.430134 0.300000 0.600000 0.000000
0.067054 -0.659774 -0.039127 0.300000 0.600000 0.000000
-0.129180 0.138847 -0.274343 0.300000 0.600000 0.000000
0.154425 -0.575480 -0.142354 0.300000 0.600000 0.000000
-0.273664 0.033666 -0.139258 0.300000 0.600000 0.000000
0.064683 -0.061847 0.184480 0.000000 1.000000 0.000000
-0.173951 -0.035056 -0.304522 0.300000 0.600000 0.000000
0.042441 0.085752 -0.465806 0.000000 0.500000 0.500000
0.010303 0.412825 0.004788 0.300000 0.600000 0.000000
0.072255 -0.026481 0.511025 0.000000 1.000000 0.000000
0.156790 -0.132886 -0.269246 0.300000 0.600000 0.000000
-0.154149 -0.078277 0.156774 0.300000 0.600000 0.000000
0.026157 -0.411002 -0.237600 0.300000 0.600000 0.000000
-0.117349 -0.556805 -0.199788 0.300000 0.600000 0.000000
0.048301 -0.218322 0.362522 0.000000 1.000000 0.000000
-0.061003 1.005994 -0.018576 0.300000 0.600000 0.000000
-0.100382 0.730661 0.058794 0.300000 0.600000 0.000000
-0.212405 -0.053895 -0.264910 0.300000 0.600000 0.000000
-0.008194 -0.000406 0.310574 0.000000 1.000000 0.000000
0.095507 -0.277608 -0.162986 0.300000 0.600000 0.000000
-0.170538 0.154145 -0.220293 0.300000 0.600000 0.000000
0.284391 0.010214 -0.003218 0.300000 0.600000 0.000000
-0.120605 0.753823 0.070653 0.300000 0.600000 0.000000
-0.232134 -0.162157 -0.151996 0.300000 0.600000 0.000000
-0.143901 0.217711 -0.161028 0.300000 0.600000 0.000000
0.165338 -0.015938 0.343165 0.000000 1.000000 0.000000
0.009727 -0.065169 -0.443113 0.000000 0.500000 0.500000
-0.084829 0.030856 -0.348613 0.300000 0.600000 0.000000
-0.269356 -0.092514 -0.018088 0.300000 0.600000 0.000000
0.106186 -0.203119 -0.269147 0.300000 0.600000 0.000000
0.061594 -0.109389 -0.398176 0.300000 0.600000 0.000000
-0.015555 -0.738327 -0.139550 0.300000 0.600000 0.000000
0.078545 0.802739 0.084964 0.300000 0.600000 0.000000
0.031725 -0.212834 0.442095 0.000000 1.000000 0.000000
0.010787 -0.647383 -0.173734 0.300000 0.600000 0.000000
-0.036349 0.579775 -0.020811 0.300000 0.600000 0.000000
0.100045 -0.107961 -0.334106 0.300000 0.600000 0.000000
-0.003310 0.579775 -0.060442 0.300000 0.600000 0.000000
0.001686 -0.038698 0.195891 0.000000 1.000000 0.000000
-0.140292 0.882980 0.020915 0.300000 0.600000 0.000000
0.092234 -0.115585 0.179129 0.000000 1.000000 0.000000
0.136818 0.036856 0.385239 0.000000 1.000000 0.000000
-0.152462 0.121852 -0.272775 0.300000 0.600000 0.000000
-0.020663 0.478593 -0.155527 0.300000 0.600000 0.000000
0.004421 0.267790 0.063693 0.300000 0.600000 0.000000
0.007815 0.415320 -0.160893 0.300000 0.600000 0.000000
-0.059577 0.425728 -0.026236 0.300000 0.600000 0.000000
-0.163566 0.016615 -0.309566 0.300000 0.600000 0.000000
-0.075642 0.495224 -0.064476 0.300000 0.600000 0.000000
-0.071313 0.801634 0.084130 0.300000 0.600000 0.000000
-0.054326 -0.654885 -0.135479 0.300000 0.600000 0.000000
0.122261 -0.052965 0.298194 0.000000 1.000000 0.000000
-0.018266 0.088400 0.217822 0.000000 1.000000 0.000000
-0.152515 -0.010615 0.131509 0.000000 1.000000 0.000000
0.073953 -0.633801 -0.169311 0.300000 0.600000 0.000000
0.070465 -0.108146 -0.333803 0.300000 0.600000 0.000000
-0.114871 -0.628712 -0.091422 0.300000 0.600000 0.000000
-0.154494 0.326335 -0.114892 0.300000 0.600000 0.000000
0.012038 -0.007517 -0.500165 0.000000 0.500000 0.500000
0.022001 0.662697 0.086537 0.300000 0.600000 0.000000
-0.073436 -0.654246 -0.049375 0.300000 0.600000 0.000000
0.107227 -0.141075 0.160580 0.300000 0.600000 0.000000
-0.103500 -0.031748 -0.345872 0.300000 0.600000 0.000000
-0.027133 -0.050992 0.206819 0.300000 0.600000 0.000000
0.108800 0.706631 0.049922 0.300000 0.600000 0.000000
0.152820 0.323171 0.022492 0.300000 0.600000 0.000000
0.064544 0.292538 -0.245284 0.300000 0.600000 0.000000
-0.273898 -0.072897 -0.021366 0.300000 0.600000 0.000000
0.036484 0.434839 -0.017971 0.300000 0.600000 0.000000
-0.035738 0.731263 0.108665 0.300000 0.600000 0.000000
0.194451 -0.225127 -0.099658 0.300000 0.600000 0.000000
0.186972 -0.119569 0.120543 0.300000 0.600000 0.000000
0.040160 -0.095013 0.298933 0.000000 1.000000 0.000000
-0.094494 -0.084892 -0.312981 0.300000 0.600000 0.000000
-0.051602 0.945178 0.029834 0.300000 0.600000 0.000000
-0.014227 -0.178441 0.299542 0.000000 1.000000 0.000000
-0.057306 0.138376 0.153668 0.300000 0.600000 0.000000
-0.014249 -0.633412 -0.191541 0.300000 0.600000 0.000000
-0.211185 -0.149535 0.061433 0.300000 0.600000 0.000000
0.107710 -0.039270 -0.403727 0.300000 0.600000 0.000000
0.143654 0.280989 -0.048961 0.300000 0.600000 0.000000
0.058429 0.921639 0.070588 0.300000 0.600000 0.000000
-0.115709 -0.079071 0.310574 0.000000 1.000000 0.000000
0.117711 0.144038 0.127890 0.300000 0.600000 0.000000
0.264435 -0.107185 -0.165534 0.300000 0.600000 0.000000
-0.001697 0.085365 -0.399149 0.300000 0.600000 0.000000
-0.027985 1.006831 0.003020 0.300000 0.600000 0.000000
0.016526 0.632673 0.069285 0.300000 0.600000 0.000000
-0.167215 0.200492 -0.017811 0.300000 0.600000 0.000000
0.165843 0.196342 -0.172428 0.300000 0.600000 0.000000
-0.206989 0.158634 -0.008121 0.300000 0.600000 0.000000
-0.103437 -0.138061 -0.303181 0.300000 0.600000 0.000000
0.105183 -0.469114 -0.229853 0.300000 0.600000 0.000000
0.156824 -0.009975 0.310574 0.000000 1.000000 0.000000
0.039680 0.533647 -0.022646 0.300000 0.600000 0.000000
0.014707 -0.224240 0.378002 0.000000 1.000000 0.000000
-0.160860 0.040599 0.151864 0.300000 0.600000 0.000000
-0.098880 0.226563 -0.203765 0.300000 0.600000 0.000000
-0.116828 0.041696 0.310574 0.000000 1.000000 0.000000
-0.032048 0.257468 -0.218280 0.300000 0.600000 0.000000
0.117056 -0.028597 0.461781 0.000000 1.000000 0.000000
-0.167246 -0.235491 -0.097205 0.300000 0.600000 0.000000
0.045035 -0.150396 0.452959 0.000000 1.000000 0.000000
-0.038668 -0.112878 0.169367 0.000000 1.000000 0.000000
0.061757 0.019338 0.511757 0.000000 1.000000 0.000000
0.041086 -0.207456 -0.267552 0.300000 0.600000 0.000000
-0.083407 0.337779 -0.078198 0.300000 0.600000 0.000000
0.109872 0.131821 -0.278874 0.300000 0.600000 0.000000
0.084214 -0.491051 -0.244761 0.300000 0.600000 0.000000
0.057650 -0.086752 0.291420 0.000000 1.000000 0.000000
0.006742 0.561915 -0.126118 0.300000 0.600000 0.000000
0.049796 -0.161678 0.442161 0.000000 1.000000 0.000000
0.172350 -0.113968 0.134662 0.300000 0.600000 0.000000
0.057720 0.864224 0.076669 0.300000 0.600000 0.000000
-0.118117 0.023559 0.451444 0.000000 1.000000 0.000000
-0.123639 -0.553435 0.038034 0.300000 0.600000 0.000000
0.046995 0.287382 -0.219930 0.300000 0.600000 0.000000
-0.116791 -0.102368 0.146469 0.000000 1.000000 0.000000
-0.019171 0.326347 0.067212 0.300000 0.600000 0.000000
0.012076 -0.206935 0.415321 0.000000 1.000000 0.000000
-0.173721 0.317100 -0.128389 0.300000 0.600000 0.000000
0.248294 0.110845 0.005876 0.300000 0.600000 0.000000
-0.088360 -0.098964 -0.339052 0.300000 0.600000 0.000000
-0.087608 -0.082757 -0.426159 0.300000 0.600000 0.000000
0.243140 0.047516 -0.230705 0.300000 0.600000 0.000000
-0.024529 -0.110878 0.263212 0.000000 1.000000 0.000000
-0.121910 0.129158 -0.289213 0.300000 0.600000 0.000000
-0.127146 0.047320 0.172925 0.300000 0.600000 0.000000
0.008942 -0.157348 -0.301960 0.300000 0.600000 0.000000
