ply
format ascii 1.0
element vertex 1284
property float x
property float y
property float z
property uchar red
property uchar green
property uchar blue
end_header
0.191247 -0.056089 -0.273771 76 153 0
0.003769 -0.193079 0.314226 0 255 0
0.141860 0.264188 -0.117070 76 153 0
0.285462 -0.092726 -0.086127 76 153 0
0.280286 -0.081146 -0.006754 76 153 0
-0.202308 -0.208992 -0.035097 76 153 0
-0.021351 -0.174068 -0.289271 76 153 0
0.013574 0.024337 -0.343776 76 153 0
0.104993 0.026068 -0.390440 76 153 0
-0.143188 -0.563256 -0.160856 76 153 0
0.270347 -0.070432 0.022661 76 153 0
0.110805 -0.132587 0.361487 0 255 0
0.104375 -0.326172 -0.021619 76 153 0
0.008639 -0.650781 0.012166 76 153 0
-0.133731 -0.028494 0.379064 0 255 0
0.046393 0.084115 -0.457813 0 127 127
0.077502 -0.685921 -0.065697 76 153 0
-0.168460 -0.131353 -0.277268 76 153 0
0.120542 0.778476 0.080361 76 153 0
0.097526 0.079729 -0.340954 76 153 0
-0.086411 0.182606 0.099453 76 153 0
-0.036170 0.058570 0.278790 0 255 0
-0.223132 -0.165831 0.010597 76 153 0
-0.042924 0.651538 0.051616 76 153 0
0.023402 0.260100 -0.219764 76 153 0
0.119099 0.237481 -0.183457 76 153 0
-0.016830 -0.055906 0.192346 0 255 0
-0.277677 0.041308 -0.101130 76 153 0
-0.114993 0.183354 0.079734 76 153 0
0.081101 -0.472172 -0.243383 76 153 0
0.154622 -0.031036 -0.311595 76 153 0
0.218815 -0.009841 0.409465 0 255 0
0.043233 0.114366 0.145676 0 255 0
-0.179131 0.302055 -0.102097 76 153 0
0.037960 -0.104513 -0.327097 76 153 0
-0.079548 0.326342 0.050981 76 153 0
0.071708 -0.063162 0.500257 0 255 0
0.182561 -0.469575 -0.119518 76 153 0
-0.110675 0.010515 0.272578 0 255 0
0.048721 -0.221083 0.315603 0 255 0
-0.115678 0.270113 -0.004823 76 153 0
0.263707 -0.108656 0.009881 76 153 0
0.197374 -0.012286 0.350291 0 255 0
0.182022 0.083091 -0.260964 76 153 0
0.029909 -0.388574 -0.219896 76 153 0
0.205542 0.017768 -0.284378 76 153 0
0.068802 -0.738056 -0.064646 76 153 0
-0.118280 0.079115 0.131383 0 255 0
0.014608 0.703566 0.085800 76 153 0
0.110776 0.115491 -0.292298 76 153 0
0.020433 -0.156701 0.260086 0 255 0
-0.001332 -0.181326 -0.302459 76 153 0
0.008795 0.077418 0.173040 0 255 0
0.126274 0.053100 0.414528 0 255 0
-0.223113 -0.184560 -0.045364 76 153 0
0.069431 -0.075486 0.293558 0 255 0
-0.022998 -0.682673 -0.144985 76 153 0
0.066586 0.078108 0.245206 0 255 0
0.059489 -0.654979 -0.016992 76 153 0
-0.004410 0.098884 -0.368550 76 153 0
0.027232 -0.073191 -0.341688 76 153 0
-0.085235 -0.406618 0.051958 76 153 0
-0.012602 0.948491 0.039504 76 153 0
0.111169 0.109909 0.156702 76 153 0
-0.076306 -0.036656 0.293488 0 255 0
0.114356 0.009382 -0.446624 76 153 0
0.177946 -0.131628 -0.277058 76 153 0
-0.158197 -0.572088 -0.102740 76 153 0
-0.032264 -0.074310 -0.443113 0 127 127
0.105310 -0.442143 0.065628 76 153 0
-0.003992 -0.035469 -0.367741 76 153 0
0.008645 -0.334569 0.037227 76 153 0
0.056683 0.939958 0.035464 76 153 0
-0.044887 0.105980 0.452916 0 255 0
-0.052820 0.132508 0.158761 76 153 0
-0.034488 -0.149782 -0.302603 76 153 0
0.076607 -0.041472 0.350640 0 255 0
-0.078334 0.041059 0.310574 0 255 0
-0.196427 0.082222 0.101645 76 153 0
-0.189882 0.025567 -0.262053 76 153 0
-0.082729 0.911437 0.060033 76 153 0
0.016161 -0.120024 -0.322151 76 153 0
-0.037298 0.086712 0.310574 0 255 0
0.001307 0.970458 0.020511 76 153 0
0.149802 0.014057 0.260086 0 255 0
-0.112655 0.086960 0.261904 0 255 0
-0.052610 -0.105663 -0.320579 76 153 0
0.243813 -0.038398 -0.239549 76 153 0
0.018770 -0.051599 0.209077 76 153 0
0.140182 0.027824 0.299542 0 255 0
-0.188583 -0.221688 -0.046263 76 153 0
-0.119564 -0.570547 -0.187631 76 153 0
0.123041 0.761038 0.077018 76 153 0
0.279442 -0.097444 -0.117005 76 153 0
-0.023820 -0.514496 0.102310 76 153 0
-0.029661 0.414614 -0.020878 76 153 0
-0.027144 -0.243961 0.075234 76 153 0
-0.214450 -0.132649 -0.224401 76 153 0
0.179306 0.324836 -0.055762 76 153 0
-0.011142 0.761410 0.116675 76 153 0
-0.040833 -0.743065 -0.050418 76 153 0
-0.074677 0.650163 0.061016 76 153 0
0.048887 -0.682494 -0.135355 76 153 0
-0.090709 -0.203691 -0.271715 76 153 0
-0.094954 -0.236441 -0.216982 76 153 0
0.005143 -0.106474 -0.354006 76 153 0
-0.081210 0.354241 -0.073911 76 153 0
0.048805 0.035554 0.398339 0 255 0
0.105097 -0.130653 0.166095 76 153 0
0.063745 0.155910 -0.272301 76 153 0
-0.156954 0.169566 -0.218725 76 153 0
0.085834 0.698941 0.063630 76 153 0
-0.136735 0.140151 -0.267295 76 153 0
0.271815 -0.015009 0.035908 76 153 0
-0.046714 -0.126043 0.183359 0 255 0
0.155266 -0.142831 -0.266152 76 153 0
0.287355 -0.059490 -0.038794 76 153 0
0.047345 0.093675 0.321001 0 255 0
-0.053560 0.410583 -0.018284 76 153 0
0.005096 0.503091 -0.012263 76 153 0
0.043216 0.038967 0.252088 0 255 0
0.002512 -0.084210 0.516757 0 255 0
0.118914 -0.333267 -0.086799 76 153 0
-0.013473 0.169494 0.307204 0 255 0
0.087337 -0.146374 0.260086 0 255 0
0.074098 0.028513 -0.443113 0 127 127
0.061224 0.123181 0.166048 76 153 0
-0.166864 0.084087 0.128381 76 153 0
0.109560 -0.098259 0.176918 76 153 0
0.133452 0.056646 0.362066 0 255 0
-0.034962 0.083545 -0.474967 0 127 127
0.031861 0.053722 0.505489 0 255 0
-0.021434 0.270022 0.059858 76 153 0
-0.233642 0.000972 -0.240814 76 153 0
-0.068748 -0.346454 0.013842 76 153 0
0.121422 0.030659 -0.309589 76 153 0
0.040588 0.538022 -0.023343 76 153 0
0.075772 -0.012129 0.388039 0 255 0
0.041289 -0.051986 -0.500165 0 127 127
-0.149361 -0.245207 -0.086581 76 153 0
0.072446 0.644920 0.038185 76 153 0
0.222367 0.160263 -0.118049 76 153 0
-0.271537 0.030164 -0.154314 76 153 0
0.033162 0.510257 -0.001589 76 153 0
-0.145880 0.319456 -0.181577 76 153 0
-0.254714 0.044322 -0.190098 76 153 0
0.039076 -0.076236 0.252088 0 255 0
0.031415 0.411494 -0.017093 76 153 0
0.171743 0.072868 -0.273853 76 153 0
0.082294 -0.051503 0.300910 0 255 0
-0.241169 -0.138902 0.009144 76 153 0
0.100773 0.171910 0.111141 76 153 0
-0.007547 0.568102 0.002583 76 153 0
-0.088475 0.102284 0.165593 76 153 0
-0.090568 -0.031321 -0.443113 76 153 0
-0.192175 -0.063872 0.308624 0 255 0
0.099972 -0.066211 0.190526 76 153 0
-0.097503 0.600689 -0.013002 76 153 0
-0.032750 0.161864 0.334785 0 255 0
-0.063414 0.066254 -0.317811 76 153 0
-0.097062 -0.275990 -0.005860 76 153 0
-0.040669 -0.394416 -0.219860 76 153 0
-0.080791 -0.115359 0.310574 0 255 0
-0.101633 -0.138602 -0.287142 76 153 0
0.119330 -0.370305 -0.139045 76 153 0
-0.098215 -0.259850 0.012378 76 153 0
0.114530 0.095092 0.338372 0 255 0
0.170027 -0.423625 -0.105583 76 153 0
-0.116648 -0.606115 -0.149227 76 153 0
0.006969 0.050224 -0.443113 0 127 127
0.198615 0.027293 0.377544 0 255 0
-0.016288 -0.229345 -0.261128 76 153 0
0.168193 0.002517 0.307674 0 255 0
0.215411 -0.210795 -0.078012 76 153 0
-0.115341 0.255783 0.003123 76 153 0
0.164411 -0.498340 -0.172874 76 153 0
-0.238022 -0.099453 0.059077 76 153 0
-0.266701 -0.109022 -0.105967 76 153 0
-0.115764 -0.281361 -0.097983 76 153 0
-0.134708 -0.243255 -0.152617 76 153 0
-0.003480 0.318129 0.106275 76 153 0
0.082094 0.040722 0.274423 0 255 0
-0.145860 -0.589767 -0.056095 76 153 0
0.003529 -0.335490 -0.193621 76 153 0
0.025290 -0.168270 0.299542 0 255 0
-0.193248 0.124942 -0.227190 76 153 0
0.114780 -0.475358 0.067684 76 153 0
-0.192610 -0.133922 -0.252005 76 153 0
-0.045990 0.125450 0.295779 0 255 0
0.063709 -0.057582 0.414731 0 255 0
0.119485 0.695738 0.054071 76 153 0
-0.007736 -0.100315 0.301783 0 255 0
-0.059982 -0.570044 -0.230349 76 153 0
-0.041881 0.176835 -0.278821 76 153 0
-0.058830 -0.071246 0.296965 0 255 0
0.020915 0.391775 0.004326 76 153 0
-0.011931 0.579768 -0.117775 76 153 0
-0.106391 -0.240807 -0.197099 76 153 0
-0.059498 0.134006 -0.296228 76 153 0
-0.053395 0.318428 0.096601 76 153 0
0.095311 -0.059333 0.172378 0 255 0
-0.143066 0.326347 -0.155627 76 153 0
0.053236 -0.003385 -0.500165 0 127 127
0.067207 -0.093936 -0.490033 0 127 127
0.044726 -0.194801 0.349925 0 255 0
-0.077680 -0.017100 0.296116 0 255 0
-0.035915 0.478368 -0.026969 76 153 0
0.040599 -0.105567 0.193882 76 153 0
0.038959 0.637753 0.069863 76 153 0
0.149871 0.053417 -0.304202 76 153 0
0.208420 -0.090570 0.117063 76 153 0
-0.112343 0.041414 0.171715 0 255 0
-0.023035 0.605693 0.025463 76 153 0
0.095489 -0.362014 -0.163912 76 153 0
0.243479 0.134182 -0.109700 76 153 0
0.009067 -0.709519 -0.142327 76 153 0
-0.126256 0.112725 0.144717 76 153 0
0.176174 0.209389 -0.040649 76 153 0
-0.022600 -0.081748 0.186065 0 255 0
0.107865 -0.070311 0.461894 0 255 0
-0.182878 0.160706 -0.196013 76 153 0
-0.131297 0.278180 -0.039405 76 153 0
0.048497 -0.219608 0.344993 0 255 0
0.037937 -0.597062 0.065542 76 153 0
0.095384 0.292146 -0.231321 76 153 0
0.192158 0.098051 -0.264609 76 153 0
-0.140796 -0.035604 0.324561 0 255 0
0.055853 0.590623 0.028947 76 153 0
-0.068909 0.730554 0.078201 76 153 0
0.050462 -0.150665 0.260086 0 255 0
-0.141703 -0.099525 0.158443 76 153 0
-0.164337 0.197799 -0.005057 76 153 0
-0.042061 0.098478 -0.352099 76 153 0
-0.030454 0.146759 0.389138 0 255 0
0.111211 -0.608632 -0.165444 76 153 0
-0.162194 -0.519351 -0.005838 76 153 0
0.108484 -0.062195 -0.470525 0 127 127
-0.027762 0.579775 -0.092006 76 153 0
0.009456 0.053717 0.355768 0 255 0
0.074865 -0.072707 0.198913 76 153 0
-0.252301 0.066283 -0.177168 76 153 0
0.000042 0.158586 -0.301541 76 153 0
0.157443 -0.245667 -0.091807 76 153 0
-0.004573 0.451109 -0.013021 76 153 0
-0.141534 0.876790 0.020783 76 153 0
0.048203 0.131567 0.264168 0 255 0
0.046669 0.068600 0.295826 0 255 0
-0.006499 -0.383820 0.062261 76 153 0
-0.141415 -0.038477 0.173093 76 153 0
-0.126084 0.268612 -0.027420 76 153 0
0.128595 -0.220817 -0.231094 76 153 0
-0.111998 -0.038876 0.294023 0 255 0
0.040540 -0.660476 -0.141082 76 153 0
0.074988 0.079369 0.276133 0 255 0
0.077262 -0.241318 0.066487 76 153 0
-0.080058 0.608492 0.021038 76 153 0
0.005383 0.579775 -0.142382 76 153 0
0.084857 0.240310 0.053386 76 153 0
-0.065372 0.073010 0.187868 76 153 0
-0.008404 0.177026 -0.283011 76 153 0
0.026748 0.125200 0.169038 76 153 0
0.249218 0.016893 0.328703 0 255 0
-0.030778 0.063097 -0.352360 76 153 0
0.066997 0.130448 0.359298 0 255 0
0.075399 0.004334 0.355364 0 255 0
-0.101836 0.096818 0.331648 0 255 0
-0.009422 1.007484 -0.017263 76 153 0
-0.020077 0.150275 0.318646 0 255 0
-0.245840 -0.119378 -0.174653 76 153 0
-0.057635 1.004787 -0.043595 76 153 0
-0.145069 -0.008209 0.285051 0 255 0
-0.107573 0.073336 0.384256 0 255 0
-0.070459 -0.119588 -0.308897 76 153 0
0.115703 -0.022593 0.220406 0 255 0
0.017457 0.531342 0.010467 76 153 0
0.023133 -0.658776 -0.150760 76 153 0
0.095658 0.056642 -0.439767 0 127 127
0.027358 0.890169 0.092977 76 153 0
0.034108 -0.094970 -0.346378 76 153 0
-0.074346 0.445950 -0.101428 76 153 0
-0.222717 -0.156170 0.030803 76 153 0
-0.031722 0.103774 0.153907 0 255 0
-0.080621 0.114778 -0.305521 76 153 0
0.163258 0.180339 -0.201948 76 153 0
-0.021484 0.049090 0.347707 0 255 0
0.096006 0.118708 0.124280 0 255 0
-0.123679 0.035855 -0.329778 76 153 0
0.239057 0.057402 0.075079 76 153 0
-0.143842 -0.057379 0.137996 0 255 0
-0.125819 -0.228239 0.056519 76 153 0
-0.099398 0.079480 0.153216 0 255 0
0.167159 -0.484236 -0.165694 76 153 0
0.005413 0.029699 0.310574 0 255 0
0.053672 -0.392739 -0.216987 76 153 0
0.123652 -0.054243 0.299542 0 255 0
0.025964 -0.206588 0.444340 0 255 0
-0.143779 0.837129 0.040722 76 153 0
0.049000 -0.222920 0.396122 0 255 0
-0.157726 -0.229426 0.011444 76 153 0
0.153195 0.022115 0.414481 0 255 0
-0.256229 0.076039 0.001383 76 153 0
-0.051257 0.076943 0.214352 0 255 0
-0.099105 -0.140023 0.329235 0 255 0
-0.003232 0.050895 -0.350643 76 153 0
0.136727 -0.615281 -0.091872 76 153 0
0.004284 -0.126761 -0.345607 76 153 0
0.215296 -0.076184 -0.268611 76 153 0
0.128653 0.152854 0.112696 76 153 0
0.035326 0.032599 0.204631 76 153 0
0.071573 -0.518756 -0.247049 76 153 0
0.093529 -0.251741 -0.192560 76 153 0
-0.024977 0.503950 -0.019697 76 153 0
-0.043726 0.065286 0.485159 0 255 0
-0.212603 -0.066814 -0.261882 76 153 0
0.228747 0.005773 -0.258413 76 153 0
-0.069953 -0.339590 -0.166518 76 153 0
-0.164599 0.326409 -0.092694 76 153 0
-0.005136 0.224315 0.086731 76 153 0
-0.060609 0.518538 -0.029298 76 153 0
-0.114322 0.137539 -0.263284 76 153 0
-0.166648 -0.234127 -0.032230 76 153 0
0.268990 0.085584 -0.119772 76 153 0
0.076768 0.147070 -0.281319 76 153 0
0.118299 -0.113588 0.388844 0 255 0
0.136416 0.315970 0.053785 76 153 0
-0.068072 -0.412867 -0.223703 76 153 0
-0.271255 0.067169 -0.089112 76 153 0
0.117795 -0.433210 -0.207255 76 153 0
0.132911 0.160097 -0.258314 76 153 0
-0.005246 0.082984 -0.404378 76 153 0
0.117586 -0.226676 0.073123 76 153 0
-0.164967 -0.063331 0.426147 0 255 0
-0.175473 -0.164879 0.089873 76 153 0
-0.131618 0.290076 0.007299 76 153 0
-0.170674 -0.024544 0.351562 0 255 0
-0.005720 0.390024 0.005184 76 153 0
-0.078318 -0.245538 0.051771 76 153 0
-0.106549 0.960296 -0.003926 76 153 0
-0.043822 0.105886 0.260086 0 255 0
0.157788 -0.584069 -0.113724 76 153 0
-0.145069 0.006269 0.274547 0 255 0
0.237711 0.033653 -0.240753 76 153 0
-0.059179 0.077365 -0.428180 76 153 0
0.030022 0.290006 -0.245467 76 153 0
-0.145461 0.745503 0.043366 76 153 0
-0.059435 -0.071130 0.252088 0 255 0
0.235027 -0.007993 0.408568 0 255 0
-0.044907 -0.164488 0.294980 0 255 0
-0.000060 0.623269 0.063679 76 153 0
0.064797 0.053380 0.174464 0 255 0
0.170323 0.017275 -0.295678 76 153 0
0.103914 -0.028363 0.476150 0 255 0
0.043230 0.073697 -0.443113 0 127 127
0.111806 -0.430813 0.054779 76 153 0
-0.011717 -0.137813 0.273146 0 255 0
-0.046522 -0.208321 -0.265121 76 153 0
0.175663 0.003172 0.442973 0 255 0
0.032583 -0.179843 0.310574 0 255 0
0.255048 0.090064 0.011871 76 153 0
-0.113422 -0.595153 -0.167129 76 153 0
0.173607 -0.544321 -0.025404 76 153 0
0.134751 0.285267 -0.142139 76 153 0
-0.062294 0.060365 0.310574 0 255 0
0.187398 -0.072285 0.139458 76 153 0
-0.097577 -0.122685 0.150931 0 255 0
-0.080702 -0.008035 0.279883 0 255 0
0.037413 0.636062 0.046144 76 153 0
0.104630 -0.040077 0.242268 0 255 0
0.103241 0.051643 0.320619 0 255 0
-0.049684 -0.697962 -0.125942 76 153 0
-0.042068 -0.171507 0.376246 0 255 0
-0.096481 -0.644191 -0.082128 76 153 0
-0.103369 0.752092 0.083592 76 153 0
-0.001429 0.049995 -0.500165 0 127 127
-0.258036 -0.063038 -0.188047 76 153 0
-0.048594 -0.234834 0.088749 76 153 0
0.045846 0.269143 0.056680 76 153 0
0.059104 0.873207 0.072302 76 153 0
-0.084922 0.763818 0.096267 76 153 0
-0.038726 0.201174 0.353301 0 255 0
0.094143 0.326340 -0.206638 76 153 0
0.165691 0.023540 0.428089 0 255 0
-0.283904 -0.005236 -0.055455 76 153 0
-0.113008 -0.090300 0.310574 0 255 0
0.077614 0.750489 0.101552 76 153 0
-0.005264 0.578521 -0.089277 76 153 0
0.049916 0.326341 0.071941 76 153 0
0.034778 0.962581 0.023743 76 153 0
-0.205730 -0.166074 0.048949 76 153 0
0.134485 -0.617124 -0.058735 76 153 0
0.085950 -0.079733 -0.443113 0 127 127
-0.061567 0.326346 -0.211944 76 153 0
-0.060615 0.106843 0.451870 0 255 0
0.143592 -0.150613 0.137760 76 153 0
-0.003590 -0.129607 -0.460612 0 127 127
-0.127056 0.835490 0.033333 76 153 0
-0.044335 0.238073 0.357894 0 255 0
0.012285 0.158976 -0.284696 76 153 0
-0.006412 -0.119192 0.240354 0 255 0
0.122925 -0.090101 0.438469 0 255 0
0.234613 0.118072 0.028512 76 153 0
0.082942 -0.376072 0.031104 76 153 0
-0.006977 0.226359 -0.240831 76 153 0
0.286726 -0.047545 -0.022065 76 153 0
0.050910 0.035022 -0.341452 76 153 0
-0.013793 0.042078 0.516867 0 255 0
-0.052553 0.880367 0.089101 76 153 0
0.066463 0.728119 0.082453 76 153 0
-0.021728 -0.113794 0.172063 0 255 0
-0.165470 0.020505 0.151633 76 153 0
0.052615 0.154681 -0.298843 76 153 0
-0.168725 -0.186801 0.071273 76 153 0
0.199811 -0.158451 0.078437 76 153 0
0.076724 -0.720075 -0.095626 76 153 0
0.167356 0.140290 -0.250877 76 153 0
-0.116304 0.160035 0.108074 76 153 0
-0.110939 0.323478 -0.213739 76 153 0
-0.033351 0.679757 0.072246 76 153 0
0.136136 -0.049461 0.310574 0 255 0
-0.282865 -0.033399 -0.049978 76 153 0
0.249734 0.083361 0.031895 76 153 0
0.151138 -0.089236 -0.303982 76 153 0
-0.070346 0.326383 -0.008799 76 153 0
-0.021871 0.094599 0.163276 0 255 0
-0.156014 -0.503103 -0.170456 76 153 0
-0.077581 0.385045 -0.095851 76 153 0
-0.196114 0.173844 -0.016589 76 153 0
0.166832 0.106502 0.124014 76 153 0
-0.020794 -0.242531 -0.234732 76 153 0
-0.155246 -0.133880 -0.264322 76 153 0
0.108395 -0.031202 -0.475752 0 127 127
0.059306 0.588511 -0.007567 76 153 0
0.073345 0.338480 -0.023966 76 153 0
-0.119633 0.326364 -0.057086 76 153 0
0.134724 -0.081535 0.299542 0 255 0
0.270628 0.090407 -0.092152 76 153 0
0.051151 -0.105157 0.308104 0 255 0
0.063889 0.389983 -0.138063 76 153 0
0.045122 -0.593338 -0.222884 76 153 0
0.151616 -0.417177 -0.154070 76 153 0
0.129290 -0.047267 0.181058 0 255 0
-0.200804 0.161706 -0.156536 76 153 0
-0.026564 0.247033 -0.223186 76 153 0
0.134046 0.326351 -0.136156 76 153 0
0.052532 -0.246149 0.424102 0 255 0
-0.159544 0.298043 -0.160955 76 153 0
-0.154459 0.068600 -0.279507 76 153 0
-0.083714 0.318688 0.083798 76 153 0
-0.192598 -0.161040 -0.228185 76 153 0
0.047737 0.569086 -0.028828 76 153 0
-0.175582 -0.478892 -0.045370 76 153 0
-0.042284 -0.626321 -0.191395 76 153 0
0.171297 -0.016936 -0.299951 76 153 0
-0.011185 -0.428575 -0.246845 76 153 0
-0.274753 -0.081358 -0.036324 76 153 0
0.065062 0.893989 0.082060 76 153 0
0.141846 0.092793 -0.306115 76 153 0
0.144833 -0.021581 0.395683 0 255 0
-0.021921 -0.109606 0.252088 0 255 0
-0.047518 0.104089 0.310574 0 255 0
-0.055023 -0.053027 0.185676 0 255 0
0.014390 0.326360 0.052358 76 153 0
0.115293 -0.238708 -0.202668 76 153 0
0.082876 0.361023 -0.044131 76 153 0
0.192909 -0.217294 -0.149975 76 153 0
-0.041892 0.537090 -0.031625 76 153 0
-0.202093 -0.164536 -0.211443 76 153 0
-0.042518 -0.619244 0.042595 76 153 0
0.006164 0.918834 0.082374 76 153 0
0.071878 0.184038 -0.263618 76 153 0
-0.010123 -0.123388 0.481410 0 255 0
0.097935 0.001510 0.310574 0 255 0
0.055178 0.036655 0.506604 0 255 0
-0.000164 0.091408 0.216366 0 255 0
0.254197 0.091666 -0.168039 76 153 0
0.073626 0.022556 0.317980 0 255 0
0.098450 -0.254189 0.029266 76 153 0
-0.112610 -0.180808 -0.261490 76 153 0
0.103568 -0.573841 -0.208797 76 153 0
-0.249563 -0.005803 0.063799 76 153 0
0.208862 0.028462 0.321698 0 255 0
0.199766 0.180993 -0.131071 76 153 0
-0.147821 0.009407 0.134302 0 255 0
-0.009188 0.807360 0.117307 76 153 0
-0.012776 0.180396 -0.262103 76 153 0
-0.243131 -0.157869 -0.041848 76 153 0
-0.264558 -0.110037 -0.036779 76 153 0
0.091563 -0.003279 0.284335 0 255 0
-0.050559 -0.282755 0.030588 76 153 0
-0.076746 -0.589651 0.051442 76 153 0
0.042794 -0.225908 -0.264285 76 153 0
-0.033367 0.494144 -0.150265 76 153 0
-0.006670 0.217215 0.335906 0 255 0
0.139357 0.001756 0.299542 0 255 0
-0.088017 -0.074527 -0.500056 0 127 127
0.186883 -0.516831 -0.089225 76 153 0
-0.058039 -0.076081 -0.329556 76 153 0
0.042443 0.039769 0.418368 0 255 0
-0.126753 0.280043 -0.129154 76 153 0
0.020061 -0.168613 0.164396 76 153 0
-0.008294 0.691980 0.080875 76 153 0
0.073689 0.003448 0.373741 0 255 0
0.009898 -0.039037 0.252088 76 153 0
-0.074643 0.602040 -0.010833 76 153 0
-0.163576 -0.181395 -0.240571 76 153 0
0.124069 -0.044382 -0.334393 76 153 0
-0.021371 -0.144486 -0.351167 76 153 0
0.055318 0.372040 -0.010315 76 153 0
0.048645 0.098557 -0.309833 76 153 0
-0.128300 0.316495 0.051720 76 153 0
0.161559 -0.437866 -0.152268 76 153 0
0.251751 0.008175 0.072087 76 153 0
0.125025 0.121347 -0.277895 76 153 0
-0.121035 -0.369050 -0.048078 76 153 0
-0.123874 0.758518 0.046074 76 153 0
-0.080084 0.072096 0.455560 0 255 0
0.074693 -0.054512 -0.333931 76 153 0
0.000893 0.055498 0.340069 0 255 0
0.083643 -0.013824 0.325840 0 255 0
0.024888 -0.338034 0.035830 76 153 0
0.154483 0.233461 -0.026877 76 153 0
0.027627 0.421776 0.001926 76 153 0
-0.111685 0.326365 -0.121211 76 153 0
-0.159353 -0.454971 -0.003963 76 153 0
0.230793 -0.163424 0.019574 76 153 0
-0.072283 -0.152283 0.310574 0 255 0
0.043986 -0.214783 0.123143 76 153 0
-0.131320 0.907257 0.012946 76 153 0
0.259147 0.006096 -0.215124 76 153 0
0.023960 -0.087267 0.387139 0 255 0
0.085917 0.938877 0.017798 76 153 0
0.093804 -0.013904 0.199283 76 153 0
-0.049138 -0.177693 -0.282553 76 153 0
0.106103 0.098138 0.271496 0 255 0
-0.045133 -0.684342 -0.132066 76 153 0
-0.150601 -0.022255 0.315718 0 255 0
0.139061 -0.073396 -0.327649 76 153 0
-0.009653 0.205105 0.099777 76 153 0
-0.051506 -0.078323 0.179716 0 255 0
0.067878 0.000980 0.252088 0 255 0
0.274073 -0.101354 -0.010349 76 153 0
0.027235 -0.181737 -0.309213 76 153 0
0.028686 -0.086374 -0.443113 0 127 127
0.112285 -0.038138 -0.392724 76 153 0
0.119560 0.149857 -0.278164 76 153 0
-0.200724 0.076220 -0.255925 76 153 0
0.021599 -0.269580 0.410695 0 255 0
0.013191 0.135936 0.299542 0 255 0
-0.083836 0.099060 0.260086 0 255 0
-0.186297 -0.104353 -0.277558 76 153 0
-0.265468 -0.098051 -0.005977 76 153 0
0.001490 0.059016 -0.333169 76 153 0
0.257145 -0.005471 0.341833 0 255 0
0.137230 -0.559098 0.028749 76 153 0
0.095773 0.299591 0.083828 76 153 0
0.223246 -0.060149 0.105857 76 153 0
-0.104485 0.050807 0.299542 0 255 0
0.049547 0.612110 0.022823 76 153 0
0.101889 0.039492 -0.383151 76 153 0
-0.275989 0.034370 -0.034943 76 153 0
0.155191 -0.397295 -0.089309 76 153 0
-0.062224 0.100901 -0.302000 76 153 0
0.175160 0.216046 -0.087067 76 153 0
-0.095810 0.271861 0.020773 76 153 0
-0.203540 -0.077110 0.115653 76 153 0
0.142264 0.265702 -0.041086 76 153 0
-0.051881 0.491116 -0.018718 76 153 0
0.129543 -0.098250 0.310574 0 255 0
-0.063002 -0.087324 0.284786 0 255 0
0.142434 0.326368 -0.173483 76 153 0
0.019651 -0.054545 -0.344748 76 153 0
0.067809 -0.123730 0.195410 0 255 0
0.174526 -0.223736 0.016335 76 153 0
-0.229339 0.065492 -0.225870 76 153 0
-0.114004 -0.174055 -0.286469 76 153 0
0.085010 0.525482 -0.091592 76 153 0
0.065062 -0.621470 0.034988 76 153 0
-0.020910 -0.115019 -0.415746 76 153 0
-0.012550 -0.066697 -0.342709 76 153 0
-0.276846 0.027039 -0.121714 76 153 0
0.086704 0.557414 -0.078726 76 153 0
0.125211 0.257416 -0.157370 76 153 0
0.152241 0.188862 0.046202 76 153 0
0.048554 0.738839 0.109798 76 153 0
-0.122524 0.055944 0.351955 0 255 0
0.011290 0.609951 0.031006 76 153 0
-0.001459 0.182938 0.356978 0 255 0
0.051169 0.292871 -0.251391 76 153 0
0.142886 -0.505468 -0.199398 76 153 0
-0.018806 0.638018 0.071463 76 153 0
-0.012117 0.241643 0.403902 0 255 0
0.107170 -0.346413 -0.137375 76 153 0
-0.090259 -0.152313 -0.314208 76 153 0
0.027013 -0.177047 0.390969 0 255 0
-0.075379 0.345904 -0.110600 76 153 0
0.089963 -0.040248 0.288108 0 255 0
-0.037854 0.077570 -0.425025 76 153 0
-0.084181 -0.098204 0.290511 0 255 0
-0.140489 0.018250 -0.316506 76 153 0
-0.059043 0.005944 0.383097 0 255 0
0.008700 -0.191734 0.299542 0 255 0
-0.034549 0.579775 -0.134308 76 153 0
-0.020034 -0.132327 0.163716 0 255 0
-0.132309 0.324229 -0.190059 76 153 0
0.198571 -0.091399 -0.282057 76 153 0
0.239200 -0.177458 -0.054778 76 153 0
0.081212 -0.094511 0.168652 0 255 0
-0.053683 0.402991 -0.137807 76 153 0
0.142942 0.287260 -0.026986 76 153 0
-0.006839 -0.069546 -0.362880 76 153 0
0.081701 -0.079648 0.282102 0 255 0
0.042543 0.070309 0.263357 0 255 0
-0.248454 0.091935 -0.158926 76 153 0
0.039734 0.249779 -0.221510 76 153 0
0.047889 -0.338538 -0.185058 76 153 0
0.228141 -0.137591 -0.215473 76 153 0
-0.144071 -0.478449 -0.184528 76 153 0
0.079150 0.459582 -0.044067 76 153 0
-0.128867 0.194231 -0.211666 76 153 0
-0.060539 -0.039230 -0.359801 76 153 0
-0.032510 -0.447308 0.095965 76 153 0
-0.222992 -0.042060 0.410845 0 255 0
0.025011 -0.292027 0.369833 0 255 0
-0.034538 0.020278 -0.443113 0 127 127
0.161613 0.037941 -0.298089 76 153 0
-0.081683 0.056097 -0.344774 76 153 0
0.026271 0.099170 0.273069 0 255 0
0.232106 0.012400 0.096783 76 153 0
-0.017501 -0.127504 -0.475752 0 127 127
0.015528 0.132158 0.133482 0 255 0
0.148806 -0.050619 0.347151 0 255 0
-0.021978 0.227374 0.082284 76 153 0
-0.043128 0.230133 0.389231 0 255 0
0.261083 -0.143702 -0.110918 76 153 0
-0.002840 -0.660958 -0.149065 76 153 0
-0.007870 -0.160709 0.156103 0 255 0
0.026666 0.322047 -0.166621 76 153 0
0.178434 -0.043036 -0.306980 76 153 0
-0.246269 0.010041 0.066348 76 153 0
-0.066907 0.431456 -0.035988 76 153 0
-0.064751 0.633922 0.027152 76 153 0
-0.084086 0.065594 -0.358868 76 153 0
-0.033885 0.895722 0.068196 76 153 0
0.010603 -0.197247 0.361030 0 255 0
0.050653 0.110226 -0.336702 76 153 0
-0.037985 -0.244303 -0.228360 76 153 0
0.043128 0.326380 -0.175193 76 153 0
-0.106738 -0.246553 0.026628 76 153 0
0.236775 0.015228 0.409088 0 255 0
0.105000 -0.088885 0.194731 0 255 0
-0.191483 -0.031061 -0.291726 76 153 0
-0.082081 -0.347946 -0.158806 76 153 0
0.190552 -0.080864 -0.291458 76 153 0
0.153225 0.320375 -0.182934 76 153 0
-0.053018 0.781376 0.092167 76 153 0
0.076295 0.031085 0.286163 0 255 0
0.086320 -0.159611 0.344585 0 255 0
-0.018122 -0.188049 0.148500 76 153 0
0.270345 -0.126557 -0.094509 76 153 0
0.213687 -0.161306 -0.212617 76 153 0
0.198030 0.033891 0.131659 76 153 0
-0.076205 -0.105338 -0.368294 76 153 0
0.107817 0.058203 -0.327019 76 153 0
0.050991 0.199614 -0.255950 76 153 0
0.089263 -0.616040 0.023686 76 153 0
-0.134978 -0.383503 -0.064766 76 153 0
0.124772 0.203328 0.056191 76 153 0
-0.072301 -0.058700 0.279856 0 255 0
-0.065263 -0.127402 0.299542 0 255 0
-0.119131 -0.065621 0.310574 0 255 0
-0.041564 0.027116 0.513134 0 255 0
-0.050459 0.075217 -0.475752 0 127 127
0.266331 -0.140371 -0.074297 76 153 0
-0.068796 -0.246466 -0.212178 76 153 0
0.042706 0.047033 0.337781 0 255 0
-0.270229 -0.089479 -0.140660 76 153 0
-0.118706 -0.505989 0.058709 76 153 0
-0.076007 0.365809 -0.051106 76 153 0
0.072663 -0.488473 0.093350 76 153 0
0.066063 0.128340 0.310574 0 255 0
-0.172695 0.102788 0.114227 76 153 0
0.067986 -0.677888 -0.050212 76 153 0
-0.120966 0.074065 -0.307315 76 153 0
-0.020091 -0.129167 -0.426029 76 153 0
0.016271 -0.225770 -0.267994 76 153 0
0.147719 -0.502191 0.037970 76 153 0
0.065331 1.008143 -0.016504 76 153 0
0.116425 0.051414 0.310574 0 255 0
-0.163029 -0.038076 0.443055 0 255 0
-0.129899 -0.411298 -0.167541 76 153 0
-0.051568 -0.114333 -0.474368 0 127 127
-0.036622 -0.262495 0.050063 76 153 0
0.015243 -0.227771 0.381444 0 255 0
-0.118490 -0.071625 0.427628 0 255 0
0.148351 -0.475314 -0.190527 76 153 0
0.078526 -0.331461 -0.164977 76 153 0
-0.127829 -0.096227 0.314850 0 255 0
-0.220563 0.155526 -0.067855 76 153 0
0.105638 0.096608 -0.292379 76 153 0
0.040352 0.043631 0.371059 0 255 0
-0.093556 -0.516877 0.076216 76 153 0
-0.064609 0.049628 -0.496193 0 127 127
-0.076170 0.575790 -0.087355 76 153 0
0.175930 0.010136 -0.308356 76 153 0
-0.096159 -0.302208 -0.021359 76 153 0
0.161408 0.325608 -0.153217 76 153 0
-0.122834 -0.368368 -0.064843 76 153 0
-0.070624 0.323433 -0.239623 76 153 0
0.027165 -0.278266 0.322992 0 255 0
-0.005069 -0.040471 0.310574 0 255 0
-0.189631 0.120333 0.081833 76 153 0
0.266513 0.085631 -0.017400 76 153 0
-0.107580 0.066249 0.141287 0 255 0
-0.027158 0.610934 0.050907 76 153 0
0.012543 0.183680 -0.276209 76 153 0
0.234498 -0.041737 0.095140 76 153 0
-0.165599 0.179612 0.032171 76 153 0
0.113677 0.836726 0.078097 76 153 0
0.191782 -0.210849 0.016216 76 153 0
-0.081852 -0.619200 -0.174663 76 153 0
0.159262 0.018078 0.134609 0 255 0
-0.123033 0.256433 -0.146647 76 153 0
0.064344 0.362031 -0.139386 76 153 0
0.171943 0.326375 -0.093280 76 153 0
0.126331 0.852308 0.062993 76 153 0
0.111352 0.085760 0.310574 0 255 0
0.039204 -0.369723 -0.203201 76 153 0
0.105236 0.918708 0.035501 76 153 0
-0.075604 0.092542 0.161690 0 255 0
-0.023631 -0.095923 0.301327 0 255 0
-0.086298 0.139189 -0.273344 76 153 0
0.069342 -0.169237 -0.285735 76 153 0
-0.174960 0.052145 -0.294535 76 153 0
-0.184410 -0.007845 -0.297596 76 153 0
-0.120792 -0.469918 -0.210797 76 153 0
0.060617 0.326342 -0.220691 76 153 0
0.098887 0.088560 0.443873 0 255 0
0.186578 0.302048 -0.038938 76 153 0
0.002656 0.051091 0.381899 0 255 0
-0.054731 -0.603042 -0.207020 76 153 0
-0.101083 0.077303 0.404809 0 255 0
-0.062567 0.644638 0.038311 76 153 0
-0.066763 0.300812 -0.248389 76 153 0
-0.247491 0.049395 -0.205807 76 153 0
-0.127966 -0.057929 0.384420 0 255 0
-0.159562 0.290042 -0.043029 76 153 0
0.126954 -0.569602 0.035054 76 153 0
0.203042 0.134534 -0.214689 76 153 0
0.229083 -0.153622 0.043187 76 153 0
-0.137784 -0.187007 -0.256288 76 153 0
0.138481 0.291417 0.036450 76 153 0
0.118663 -0.478025 -0.220975 76 153 0
0.050152 -0.136746 -0.309596 76 153 0
0.097007 0.108127 0.361210 0 255 0
0.092864 -0.033584 -0.500165 0 127 127
-0.127649 -0.535777 0.044677 76 153 0
-0.077817 -0.332589 0.002229 76 153 0
-0.047318 0.230618 0.073686 76 153 0
-0.089443 0.100155 0.299542 0 255 0
-0.039607 0.637522 0.042572 76 153 0
0.072490 0.217120 0.077455 76 153 0
-0.053313 0.030945 0.322495 0 255 0
-0.040908 0.339917 -0.003085 76 153 0
-0.080345 -0.040378 -0.354244 76 153 0
0.033773 0.510434 -0.019448 76 153 0
-0.042016 0.850014 0.104449 76 153 0
-0.090594 0.033416 -0.425583 76 153 0
-0.092361 0.289779 -0.198370 76 153 0
0.001009 -0.020060 -0.370428 76 153 0
-0.234129 -0.112863 -0.209915 76 153 0
-0.026416 0.050897 -0.344089 76 153 0
0.236614 0.128121 -0.159537 76 153 0
0.139671 -0.080510 0.172062 76 153 0
-0.003043 -0.099139 -0.332075 76 153 0
0.110785 -0.080225 0.296165 0 255 0
-0.039486 0.206173 0.371950 0 255 0
0.040532 -0.617217 -0.204976 76 153 0
0.075222 -0.171468 0.324131 0 255 0
0.157313 0.064526 -0.291146 76 153 0
0.089070 -0.146925 0.310574 0 255 0
0.224336 -0.172566 -0.172820 76 153 0
0.141277 0.210096 0.030492 76 153 0
0.037542 -0.212278 -0.282738 76 153 0
-0.169695 0.297305 -0.021065 76 153 0
-0.224534 -0.092815 0.082299 76 153 0
0.269006 -0.118134 -0.024652 76 153 0
0.105413 -0.144847 0.334641 0 255 0
0.092753 0.612892 0.019233 76 153 0
-0.065535 0.000965 -0.335088 76 153 0
-0.258953 -0.089372 -0.175195 76 153 0
-0.144602 -0.008331 -0.315635 76 153 0
-0.047704 0.468801 -0.140487 76 153 0
0.111347 -0.047516 0.310574 0 255 0
0.055082 0.026852 0.187128 0 255 0
-0.026997 0.536007 -0.020534 76 153 0
-0.111216 -0.372009 -0.016207 76 153 0
-0.092584 0.006529 -0.408309 76 153 0
-0.110776 0.049181 -0.339895 76 153 0
-0.099632 -0.552167 0.059993 76 153 0
0.066850 0.165734 0.131092 76 153 0
0.027456 0.544391 0.014405 76 153 0
-0.024245 0.402019 0.000050 76 153 0
-0.081976 0.260999 -0.191370 76 153 0
0.092901 0.080769 0.310574 0 255 0
0.157640 -0.403024 -0.104093 76 153 0
-0.072621 0.039484 -0.352453 76 153 0
-0.003943 -0.044756 -0.500165 0 127 127
0.120303 0.739318 0.075280 76 153 0
0.095866 0.220086 0.063286 76 153 0
0.281151 -0.094226 -0.041684 76 153 0
0.098405 0.023924 -0.408301 76 153 0
-0.002684 -0.002393 0.310574 0 255 0
0.022926 0.144378 -0.284684 76 153 0
-0.143940 -0.457011 -0.180102 76 153 0
-0.034340 -0.004233 -0.343888 76 153 0
0.065035 -0.412100 -0.228222 76 153 0
0.063039 0.183496 0.112015 76 153 0
0.045740 0.154151 -0.276594 76 153 0
-0.020085 -0.190900 -0.288747 76 153 0
-0.145069 0.054478 0.261942 0 255 0
0.012678 0.560641 -0.158977 76 153 0
0.142511 0.060348 0.134618 0 255 0
-0.249286 0.111037 -0.037865 76 153 0
-0.102241 0.703981 0.046452 76 153 0
-0.043660 -0.712363 -0.028670 76 153 0
-0.198238 -0.100205 0.111584 76 153 0
-0.048217 0.915031 0.052346 76 153 0
0.279705 0.069168 -0.065807 76 153 0
-0.100477 0.326338 0.042017 76 153 0
-0.177653 -0.508347 -0.059405 76 153 0
0.069832 -0.626665 -0.182294 76 153 0
-0.016558 0.027054 0.206595 76 153 0
-0.233459 -0.089957 -0.228428 76 153 0
-0.264362 0.075222 -0.116134 76 153 0
-0.042583 0.891946 0.088341 76 153 0
-0.071803 0.791747 0.084385 76 153 0
0.224785 0.043250 0.099709 76 153 0
0.022743 0.146266 0.261054 0 255 0
-0.024389 -0.445922 -0.252292 76 153 0
0.102535 -0.553128 0.064480 76 153 0
0.151651 0.059984 0.299542 0 255 0
0.131341 0.074706 -0.309226 76 153 0
-0.096383 -0.329667 -0.131240 76 153 0
-0.106861 0.005570 -0.374377 76 153 0
-0.281158 0.021142 -0.060976 76 153 0
0.089930 0.053884 -0.473646 0 127 127
-0.051830 0.542458 -0.018678 76 153 0
-0.004551 0.100604 0.195590 76 153 0
0.023964 -0.067856 0.191068 0 255 0
0.123941 0.067062 0.260086 0 255 0
-0.079275 0.369049 -0.067463 76 153 0
-0.098395 0.015057 0.217756 0 255 0
-0.156420 0.318535 -0.168112 76 153 0
-0.164298 -0.027212 -0.313219 76 153 0
0.013508 0.527949 -0.013370 76 153 0
-0.087835 -0.042947 0.301308 0 255 0
-0.010138 0.010923 0.193728 0 255 0
0.044767 -0.113528 0.237539 0 255 0
-0.209932 0.163032 -0.030851 76 153 0
0.041903 -0.133001 0.198628 0 255 0
0.063041 -0.169866 0.364071 0 255 0
0.086895 0.089094 0.260086 0 255 0
-0.017115 0.181132 0.439767 0 255 0
-0.011329 0.627435 0.041731 76 153 0
0.100607 -0.640035 -0.125537 76 153 0
-0.088746 -0.548667 -0.225989 76 153 0
0.078512 -0.250566 -0.206042 76 153 0
-0.113559 -0.293443 -0.078369 76 153 0
0.023145 -0.089733 -0.336081 76 153 0
-0.079508 0.048314 -0.388421 76 153 0
-0.076940 -0.069160 0.264409 0 255 0
-0.215593 0.028917 -0.258345 76 153 0
-0.221725 0.050448 0.089905 76 153 0
-0.123346 -0.614764 -0.039100 76 153 0
-0.090767 -0.068621 0.310574 0 255 0
-0.086669 0.924119 0.022655 76 153 0
-0.014556 0.512709 0.002983 76 153 0
-0.154323 -0.581415 -0.084134 76 153 0
0.243145 -0.088341 0.073311 76 153 0
0.028193 -0.156795 -0.328225 76 153 0
0.025647 0.734984 0.094324 76 153 0
0.153500 0.228154 -0.141347 76 153 0
0.106474 0.273212 0.018895 76 153 0
0.096473 0.644891 0.048178 76 153 0
0.185265 -0.486446 -0.039977 76 153 0
0.083177 -0.019700 -0.359594 76 153 0
-0.048154 -0.079922 0.310574 0 255 0
-0.083035 0.844999 0.089357 76 153 0
-0.071238 0.899634 0.072837 76 153 0
0.008591 0.105912 -0.357060 76 153 0
0.085892 -0.074186 0.299080 0 255 0
-0.212892 0.114385 -0.214322 76 153 0
0.058969 -0.165783 0.161445 76 153 0
0.009350 -0.189004 0.412406 0 255 0
-0.037107 0.775216 0.114255 76 153 0
-0.137042 0.326349 -0.108504 76 153 0
-0.222356 -0.066813 0.320018 0 255 0
0.063859 -0.052046 -0.350604 76 153 0
-0.247802 -0.139312 -0.148524 76 153 0
-0.093826 0.723414 0.061353 76 153 0
0.046232 -0.389645 0.061688 76 153 0
0.013782 0.953885 0.035472 76 153 0
-0.094148 0.326366 -0.151245 76 153 0
0.279120 0.040074 -0.155315 76 153 0
-0.277032 -0.061833 -0.034109 76 153 0
0.125857 -0.628166 -0.083756 76 153 0
0.146383 -0.397523 -0.130089 76 153 0
-0.040378 0.810896 0.112881 76 153 0
-0.067937 -0.698207 -0.076064 76 153 0
0.209402 0.011364 0.309284 0 255 0
0.019975 0.151194 0.324668 0 255 0
0.180913 -0.451733 -0.111332 76 153 0
-0.243587 -0.101697 0.043234 76 153 0
0.173955 -0.087177 -0.281036 76 153 0
-0.111353 -0.257575 -0.001118 76 153 0
0.177813 0.021746 0.149170 76 153 0
0.041977 0.784596 0.098013 76 153 0
0.133022 0.326360 -0.101492 76 153 0
-0.045459 -0.384110 0.053558 76 153 0
0.039564 0.496341 -0.022557 76 153 0
-0.006637 -0.622647 0.047988 76 153 0
0.003199 0.107647 0.299542 0 255 0
-0.098079 -0.034127 0.467825 0 255 0
-0.284723 -0.034371 -0.065067 76 153 0
-0.050738 0.326378 0.014869 76 153 0
-0.166816 -0.548796 -0.110551 76 153 0
-0.004292 -0.234498 -0.253323 76 153 0
-0.036542 -0.121304 -0.448350 0 127 127
0.066587 0.121416 0.408915 0 255 0
-0.136965 -0.073948 0.299542 0 255 0
0.076279 0.268193 0.043986 76 153 0
0.157026 0.326339 -0.032736 76 153 0
-0.143195 0.050970 -0.319517 76 153 0
-0.028941 0.136806 0.415044 0 255 0
-0.112714 -0.033435 0.318656 0 255 0
-0.073824 -0.132456 -0.330186 76 153 0
-0.126468 -0.060152 0.161961 0 255 0
0.009220 -0.021077 0.214353 76 153 0
-0.003942 -0.535527 -0.257989 76 153 0
0.067213 -0.136015 -0.345576 76 153 0
-0.041417 0.138158 -0.300048 76 153 0
0.119593 0.290923 0.053281 76 153 0
-0.166235 0.069272 0.136532 76 153 0
0.270353 0.013310 -0.185611 76 153 0
0.193211 -0.181452 0.058294 76 153 0
-0.233604 0.123137 -0.154024 76 153 0
0.045523 -0.631006 -0.188622 76 153 0
0.097918 -0.235414 -0.224642 76 153 0
-0.059436 0.909686 0.072496 76 153 0
-0.281046 -0.065012 -0.067779 76 153 0
0.150505 -0.004511 0.348533 0 255 0
0.180871 0.174252 0.034961 76 153 0
-0.113373 -0.089751 0.162767 0 255 0
-0.000174 0.024706 0.209061 76 153 0
0.059518 -0.143494 0.167747 76 153 0
-0.075689 0.460951 -0.093296 76 153 0
-0.065526 -0.717633 -0.098704 76 153 0
-0.169695 -0.521397 -0.131186 76 153 0
0.078462 -0.083869 0.267896 0 255 0
0.116171 -0.324114 -0.054786 76 153 0
0.016495 0.076829 0.302336 0 255 0
0.019132 -0.030935 -0.500165 0 127 127
0.157766 -0.586473 -0.055947 76 153 0
0.214673 -0.124564 -0.241812 76 153 0
-0.278582 0.049300 -0.069566 76 153 0
0.035867 -0.163911 0.260086 0 255 0
-0.024804 -0.103330 0.195651 76 153 0
0.085826 -0.586277 -0.210754 76 153 0
0.144196 -0.164245 -0.280406 76 153 0
-0.105862 0.256299 -0.170974 76 153 0
-0.173330 -0.541528 -0.083945 76 153 0
0.202441 -0.049848 0.131607 76 153 0
-0.120231 0.916870 0.022189 76 153 0
-0.005580 0.326342 -0.232215 76 153 0
0.077031 0.286680 -0.206355 76 153 0
-0.004412 0.202360 0.308592 0 255 0
-0.083553 0.993116 -0.023542 76 153 0
0.233717 0.150595 -0.067638 76 153 0
-0.077407 0.542013 -0.077878 76 153 0
0.184857 -0.473384 -0.049939 76 153 0
-0.074205 0.070142 0.273801 0 255 0
-0.174273 -0.042785 0.306347 0 255 0
-0.103370 0.164994 -0.268514 76 153 0
0.003160 0.066610 0.288455 0 255 0
-0.048901 0.675876 0.085833 76 153 0
0.256186 -0.153345 -0.043256 76 153 0
-0.017216 -0.137768 -0.364345 76 153 0
0.060204 -0.739277 -0.108108 76 153 0
-0.180710 -0.491762 -0.084380 76 153 0
0.156629 -0.449758 0.016903 76 153 0
-0.017110 0.047939 -0.443113 0 127 127
0.083974 0.449484 -0.100677 76 153 0
0.097393 0.655044 0.027802 76 153 0
0.145445 -0.487119 0.041013 76 153 0
-0.002436 -0.175543 0.310574 0 255 0
0.152895 0.067007 0.155152 76 153 0
0.066247 -0.203233 -0.285614 76 153 0
-0.037192 -0.572426 -0.238425 76 153 0
-0.050509 0.050895 -0.343413 76 153 0
-0.201212 -0.002349 -0.283791 76 153 0
-0.194075 -0.194476 -0.179632 76 153 0
0.086086 -0.016550 0.252088 0 255 0
-0.082175 0.040423 0.471653 0 255 0
0.059395 0.460634 -0.138945 76 153 0
0.060518 0.010432 -0.353517 76 153 0
0.077117 -0.360444 0.022121 76 153 0
0.107239 -0.306990 -0.026884 76 153 0
0.025549 0.233955 -0.234087 76 153 0
-0.132573 -0.380686 -0.092501 76 153 0
0.009783 0.065332 -0.443113 0 127 127
-0.083574 0.015814 0.297628 0 255 0
0.036437 0.109038 0.177992 76 153 0
-0.036549 -0.741572 -0.117022 76 153 0
0.216841 -0.189096 0.002221 76 153 0
0.156124 0.237014 -0.117886 76 153 0
0.103670 0.232503 -0.201891 76 153 0
-0.247237 -0.150168 -0.124360 76 153 0
-0.075480 -0.654615 -0.099648 76 153 0
-0.132920 -0.113674 0.293755 0 255 0
0.145509 0.269884 -0.074737 76 153 0
0.044467 0.126722 0.437278 0 255 0
-0.047629 -0.177064 0.310574 0 255 0
-0.039989 0.993374 -0.020777 76 153 0
0.038415 -0.110432 0.291018 0 255 0
0.044843 -0.195570 0.421748 0 255 0
0.163762 -0.075904 0.156999 76 153 0
-0.040445 -0.198564 -0.277689 76 153 0
-0.030561 -0.534784 -0.254583 76 153 0
0.037556 -0.181965 0.353345 0 255 0
0.050117 0.113612 0.451870 0 255 0
-0.020246 0.184773 0.306345 0 255 0
0.080207 0.131055 0.154116 76 153 0
-0.007325 0.548426 0.017509 76 153 0
-0.007692 0.579775 -0.067871 76 153 0
0.070364 0.146882 0.145160 76 153 0
0.230566 -0.054165 -0.253432 76 153 0
0.033153 -0.339151 -0.190812 76 153 0
-0.067581 -0.089807 -0.407795 76 153 0
-0.123494 0.885893 0.009033 76 153 0
-0.059750 0.107888 -0.329993 76 153 0
0.040929 -0.298359 0.350754 0 255 0
-0.090621 -0.016630 0.287318 0 255 0
-0.017280 0.181732 0.120637 76 153 0
0.077985 -0.233582 0.083122 76 153 0
0.086584 0.002843 0.300736 0 255 0
-0.044589 0.951205 0.052708 76 153 0
-0.284135 -0.042785 -0.086818 76 153 0
0.084867 -0.402925 -0.211742 76 153 0
-0.024097 -0.644972 -0.173901 76 153 0
0.062602 -0.125710 0.253623 0 255 0
-0.105541 -0.613726 -0.001472 76 153 0
0.107681 0.029476 -0.316907 76 153 0
0.089148 0.824896 0.076321 76 153 0
0.182899 0.205697 -0.070777 76 153 0
-0.201443 0.041027 -0.274190 76 153 0
-0.056613 0.538306 -0.044379 76 153 0
-0.010181 0.075974 0.266886 0 255 0
-0.097428 0.074936 0.310574 0 255 0
0.000250 0.290076 -0.240011 76 153 0
-0.119398 0.700646 0.055480 76 153 0
0.042027 1.000041 0.009581 76 153 0
-0.104661 -0.099220 0.299542 0 255 0
-0.104848 -0.048271 0.321238 0 255 0
-0.032119 -0.155414 0.310574 0 255 0
0.110633 0.018593 -0.471824 0 127 127
-0.071007 0.401023 -0.043377 76 153 0
0.048238 -0.068327 -0.349593 76 153 0
0.057057 0.326384 -0.163621 76 153 0
0.070606 0.121994 -0.321385 76 153 0
-0.026202 -0.135541 0.291954 0 255 0
-0.277411 0.007361 -0.137101 76 153 0
-0.075403 0.032751 0.282029 0 255 0
0.114646 0.681821 0.057162 76 153 0
0.075125 0.478718 -0.119864 76 153 0
0.092162 -0.160381 0.317128 0 255 0
0.149129 0.138693 -0.266395 76 153 0
-0.172118 -0.540902 -0.060720 76 153 0
0.109796 -0.407030 -0.196549 76 153 0
0.055685 0.427570 -0.013156 76 153 0
0.046102 0.547921 -0.148760 76 153 0
0.132348 -0.154033 -0.299250 76 153 0
0.114027 -0.542366 0.061233 76 153 0
0.032310 -0.112961 0.265699 0 255 0
-0.077540 -0.010314 0.310574 0 255 0
-0.016085 0.085614 0.310574 0 255 0
0.268318 0.043295 0.024463 76 153 0
-0.280454 -0.057928 -0.099631 76 153 0
-0.139681 -0.425461 0.010352 76 153 0
0.138973 -0.608975 -0.044171 76 153 0
0.030362 0.099606 0.467804 0 255 0
0.041491 0.367616 -0.154365 76 153 0
-0.124708 0.035926 0.382977 0 255 0
0.187535 0.188954 -0.016238 76 153 0
0.187179 -0.493319 -0.108185 76 153 0
-0.111739 -0.097462 0.411999 0 255 0
-0.243104 -0.065217 0.336009 0 255 0
-0.048384 0.072676 0.310574 0 255 0
0.117787 -0.157537 -0.284561 76 153 0
-0.216332 0.132084 -0.177935 76 153 0
-0.105130 0.326360 -0.005328 76 153 0
-0.084835 0.054984 0.248366 0 255 0
-0.236316 -0.071454 0.396214 0 255 0
0.157877 -0.007965 0.262790 0 255 0
-0.067902 0.472618 -0.115508 76 153 0
0.178119 0.028787 -0.285146 76 153 0
-0.068652 0.107380 0.149950 0 255 0
-0.149538 -0.531335 0.017102 76 153 0
-0.011350 0.670463 0.090810 76 153 0
-0.176965 -0.158693 -0.251491 76 153 0
-0.131823 0.248479 -0.022198 76 153 0
-0.082004 -0.017160 0.487052 0 255 0
-0.034715 0.241457 0.326025 0 255 0
-0.138081 -0.403419 -0.139164 76 153 0
-0.101615 -0.071887 0.271780 0 255 0
-0.121006 0.039355 0.159257 0 255 0
-0.068663 -0.242829 0.062950 76 153 0
0.137708 -0.017388 0.426746 0 255 0
-0.036043 -0.144733 -0.343865 76 153 0
-0.204961 -0.172739 -0.196563 76 153 0
-0.100996 -0.052564 -0.381957 76 153 0
-0.087148 -0.165618 0.148709 76 153 0
0.069129 0.021006 0.344149 0 255 0
-0.052714 0.113236 -0.297046 76 153 0
-0.021666 -0.057769 -0.362478 76 153 0
0.030277 -0.045191 0.252088 76 153 0
0.174442 0.124127 0.105108 76 153 0
0.024917 0.303260 -0.262734 76 153 0
0.170256 -0.449901 -0.011645 76 153 0
0.025123 0.868973 0.082042 76 153 0
-0.120312 0.728304 0.065149 76 153 0
-0.089689 -0.136521 0.133208 0 255 0
-0.074725 0.117896 0.354866 0 255 0
-0.039657 -0.052511 0.310574 0 255 0
0.099449 -0.273820 0.005475 76 153 0
0.114475 -0.085273 -0.337657 76 153 0
0.147135 -0.603301 -0.073277 76 153 0
0.289384 0.040513 -0.071441 76 153 0
0.052125 0.901379 0.083739 76 153 0
-0.044632 0.429011 -0.033913 76 153 0
0.075475 -0.129221 -0.307046 76 153 0
0.079880 -0.114594 -0.364787 76 153 0
-0.131048 -0.008223 0.395654 0 255 0
0.036368 0.083145 -0.475752 0 127 127
0.154609 -0.397364 -0.061703 76 153 0
0.073532 -0.154411 -0.293459 76 153 0
0.127103 -0.071028 0.174479 0 255 0
-0.130248 0.035349 0.310574 0 255 0
0.080373 0.742266 0.080199 76 153 0
0.075546 0.314814 -0.249032 76 153 0
0.277726 -0.112138 -0.072023 76 153 0
-0.120389 0.028730 0.425820 0 255 0
0.116398 -0.041101 0.187270 0 255 0
-0.111444 -0.116108 0.132397 0 255 0
0.001149 -0.352995 0.042713 76 153 0
-0.044987 0.290067 -0.236967 76 153 0
-0.049735 0.136646 0.310574 0 255 0
0.031421 -0.172851 -0.290270 76 153 0
0.107213 0.066777 0.310574 0 255 0
0.113720 0.010101 -0.317785 76 153 0
-0.035689 -0.073552 0.417934 0 255 0
-0.175979 -0.046372 -0.277281 76 153 0
-0.055581 0.095364 0.177611 76 153 0
0.201164 -0.032938 -0.291200 76 153 0
-0.029000 -0.041261 -0.443113 0 127 127
0.170039 -0.231640 -0.149954 76 153 0
-0.067297 -0.651328 -0.129899 76 153 0
-0.064226 0.128189 0.345633 0 255 0
0.045836 0.968489 0.013152 76 153 0
0.052432 0.086033 0.471251 0 255 0
-0.255410 -0.115477 -0.000099 76 153 0
0.070893 0.326354 -0.200318 76 153 0
0.203859 0.017944 0.129809 76 153 0
0.120292 0.280748 -0.159579 76 153 0
0.031806 -0.022753 -0.366990 76 153 0
0.020439 -0.261951 0.366469 0 255 0
0.164977 -0.030434 0.131508 0 255 0
-0.013705 0.040559 0.188920 0 255 0
0.011127 0.781507 0.102011 76 153 0
0.052637 -0.246840 0.398547 0 255 0
-0.030792 -0.139220 0.462641 0 255 0
0.005652 0.150115 0.152697 76 153 0
-0.087413 -0.139948 0.271556 0 255 0
0.025503 -0.648928 -0.169158 76 153 0
-0.010638 0.243317 0.387101 0 255 0
-0.048795 0.230097 -0.229313 76 153 0
0.167384 -0.014299 0.308208 0 255 0
-0.004887 -0.501928 -0.262289 76 153 0
-0.235929 -0.071421 0.375822 0 255 0
-0.154782 -0.113638 -0.296934 76 153 0
-0.143405 -0.417263 -0.004537 76 153 0
0.043783 -0.176126 0.129079 0 255 0
-0.022428 -0.422395 0.086973 76 153 0
0.013099 0.022833 -0.443113 0 127 127
-0.005222 0.131788 0.165579 76 153 0
0.051926 0.091778 0.289982 0 255 0
-0.128414 -0.040578 0.405312 0 255 0
-0.069315 0.972135 -0.015935 76 153 0
0.137235 -0.005410 0.437633 0 255 0
0.094365 0.326359 0.020084 76 153 0
-0.222142 0.134992 -0.158127 76 153 0
0.149037 -0.233126 -0.181625 76 153 0
0.096016 -0.084366 -0.464423 0 127 127
-0.104675 0.764345 0.062701 76 153 0
0.102171 0.186543 -0.248449 76 153 0
0.218532 -0.095814 -0.256178 76 153 0
-0.117699 0.933432 0.011839 76 153 0
-0.190585 0.167668 0.013521 76 153 0
0.198943 -0.194088 0.035033 76 153 0
-0.159181 -0.135320 0.126503 76 153 0
-0.120079 0.290076 -0.172197 76 153 0
0.225157 0.139213 0.009317 76 153 0
-0.160794 -0.539565 -0.012057 76 153 0
0.053184 -0.102032 -0.477383 0 127 127
-0.028976 0.091929 -0.440455 0 127 127
-0.128239 0.081541 -0.294733 76 153 0
-0.015872 -0.473797 0.103271 76 153 0
-0.205581 0.005176 0.120652 76 153 0
0.157877 -0.031453 0.273801 0 255 0
-0.028189 -0.155236 -0.332456 76 153 0
0.091986 0.158155 -0.264074 76 153 0
-0.071498 0.500875 -0.049139 76 153 0
-0.017537 -0.129754 -0.442463 0 127 127
-0.050287 0.052456 0.490246 0 255 0
-0.252746 0.112985 -0.070277 76 153 0
-0.134029 0.253062 -0.123578 76 153 0
0.184617 -0.006540 0.148602 76 153 0
-0.082588 0.320716 -0.052842 76 153 0
0.070416 0.053350 0.297201 0 255 0
0.241489 -0.078017 -0.234083 76 153 0
0.187604 -0.001646 -0.279809 76 153 0
0.218951 -0.009825 0.373244 0 255 0
0.048105 -0.285978 0.394993 0 255 0
0.118747 0.146946 -0.261777 76 153 0
0.019951 -0.052073 0.310574 0 255 0
-0.035649 -0.121553 -0.385136 76 153 0
0.048936 -0.175048 0.372482 0 255 0
-0.071639 -0.075934 0.172878 0 255 0
0.136707 0.194549 -0.212474 76 153 0
0.255323 -0.100796 -0.194389 76 153 0
-0.094613 0.309234 -0.236714 76 153 0
-0.062815 0.078882 0.269329 0 255 0
0.086173 -0.253572 0.039440 76 153 0
-0.017277 0.138356 -0.287900 76 153 0
-0.068645 0.451905 -0.040971 76 153 0
0.079576 0.626236 0.044938 76 153 0
-0.144456 0.710733 0.031311 76 153 0
-0.041304 -0.129285 0.306331 0 255 0
0.015226 0.777815 0.118467 76 153 0
-0.124802 0.298634 0.054446 76 153 0
-0.201871 0.106933 0.077879 76 153 0
0.157877 0.044983 0.275568 0 255 0
-0.040103 -0.179096 0.340489 0 255 0
0.080904 0.783485 0.102877 76 153 0
0.070712 -0.722723 -0.043360 76 153 0
0.268830 0.033694 -0.182334 76 153 0
0.187762 -0.227808 -0.118408 76 153 0
0.011607 0.326353 -0.218554 76 153 0
-0.269706 -0.017518 0.019165 76 153 0
0.065703 -0.070110 0.252088 0 255 0
-0.081083 0.011507 0.174728 0 255 0
0.147007 0.174804 -0.230628 76 153 0
0.048178 0.046043 0.182087 0 255 0
-0.088555 -0.090006 0.249818 0 255 0
0.226967 -0.016005 0.109570 76 153 0
0.126762 -0.109722 0.166424 76 153 0
0.036600 -0.113968 0.321238 0 255 0
-0.013241 -0.173826 0.299542 0 255 0
-0.009905 0.614466 0.055771 76 153 0
0.210879 -0.138500 -0.237356 76 153 0
-0.133050 -0.387646 -0.119954 76 153 0
-0.017339 -0.025590 0.195216 0 255 0
-0.123294 -0.094780 -0.294544 76 153 0
-0.036008 -0.094928 0.496073 0 255 0
0.046060 -0.203578 0.372346 0 255 0
-0.079862 -0.090952 -0.346133 76 153 0
-0.160070 -0.083011 0.151452 76 153 0
0.122897 0.075776 0.310574 0 255 0
0.138187 0.290076 -0.172751 76 153 0
0.096537 0.008171 0.195032 76 153 0
0.023238 0.046747 -0.352101 76 153 0
0.145764 0.036828 0.310574 0 255 0
-0.007346 0.221664 0.405129 0 255 0
-0.083584 -0.083959 -0.384751 76 153 0
-0.017767 0.131925 -0.313315 76 153 0
