ply
format ascii 1.0
element vertex 1266
property float x
property float y
property float z
property uchar red
property uchar green
property uchar blue
end_header
0.096306 -0.217795 -0.161801 255 0 0
0.000869 0.443353 0.061227 153 76 0
0.019240 0.649063 0.477930 153 76 0
-0.011017 0.699041 0.335592 153 76 0
0.124786 -0.109275 -0.119628 0 255 0
0.037861 0.035051 -0.083644 153 76 0
0.083304 -0.185177 -0.013958 255 0 0
-0.163646 -0.026695 -0.032317 127 127 0
-0.268518 -0.000373 -0.022534 127 127 0
-0.012162 -0.288851 -0.209282 255 0 0
-0.046441 -0.280087 -0.066208 0 255 0
0.035682 -0.407528 -0.150682 255 0 0
-0.034587 0.646874 0.284202 153 76 0
-0.031783 0.017810 -0.081879 153 76 0
-0.018280 -0.169266 0.016678 255 0 0
-0.019564 -0.407466 0.002289 255 0 0
-0.029650 0.620332 0.709698 153 76 0
-0.208085 -0.182540 -0.030472 0 255 0
-0.261318 0.010792 -0.118042 127 127 0
0.199095 -0.074955 -0.141457 0 255 0
-0.174479 -0.103111 -0.100271 127 127 0
0.182865 -0.191165 -0.111695 127 127 0
-0.150671 -0.302043 -0.120501 0 255 0
0.033649 -0.315384 -0.125714 127 127 0
-0.194229 -0.175855 -0.078727 0 255 0
0.037623 0.153013 -0.108614 153 76 0
0.076447 -0.307956 -0.007876 255 0 0
-0.197004 -0.209728 -0.037171 0 255 0
0.180616 -0.235209 -0.075594 127 127 0
-0.079114 -0.360149 -0.026736 0 255 0
-0.177935 -0.150205 -0.129109 0 255 0
0.099797 -0.205159 -0.084083 127 127 0
0.058942 -0.271563 -0.175907 127 127 0
0.091408 -0.393344 -0.118032 127 127 0
-0.025184 -0.319496 0.014892 255 0 0
0.114239 -0.310754 -0.071293 255 0 0
0.037487 0.580584 0.745847 76 0 153
0.087713 -0.149357 -0.082879 127 127 0
0.058486 -0.385992 -0.196072 255 0 0
-0.205820 0.029866 -0.115690 127 127 0
-0.032412 0.690471 0.554909 153 76 0
0.037930 0.344096 -0.060946 153 76 0
0.081330 -0.335474 -0.179477 255 0 0
-0.104364 -0.334236 -0.055414 255 0 0
0.116062 -0.127360 -0.157905 127 127 0
-0.021053 0.569144 0.771691 76 0 153
-0.189322 -0.105675 -0.027849 127 127 0
-0.176327 -0.199042 -0.143032 0 255 0
-0.244084 -0.048262 0.001489 127 127 0
0.073801 -0.222633 -0.185716 255 0 0
0.275540 -0.051771 -0.154801 0 255 0
0.213208 -0.057637 -0.197306 0 255 0
-0.129198 -0.356513 -0.091124 0 255 0
0.165297 -0.112801 -0.078311 0 255 0
0.246303 -0.016094 -0.063560 0 255 0
0.108858 -0.380005 -0.053202 255 0 0
0.114639 -0.236537 -0.120361 255 0 0
-0.033064 0.632681 0.221182 153 76 0
-0.032205 0.676300 0.330664 153 76 0
0.006204 0.620417 0.320246 153 76 0
0.079226 -0.407526 -0.153043 255 0 0
-0.009593 0.710432 0.594087 153 76 0
0.068219 -0.131294 -0.168439 255 0 0
0.259454 -0.050726 -0.079079 0 255 0
-0.014287 0.534314 0.149511 153 76 0
-0.111094 -0.210721 -0.106749 255 0 0
0.047759 -0.222248 -0.141838 127 127 0
0.047011 -0.282660 -0.104751 127 127 0
0.038059 -0.407528 -0.036090 255 0 0
-0.094383 -0.214140 -0.034823 255 0 0
0.011249 0.644945 0.532346 153 76 0
-0.006312 -0.211928 -0.209904 255 0 0
0.127214 -0.233589 -0.188219 127 127 0
-0.098986 -0.323567 -0.122906 0 255 0
0.037999 0.605533 0.168985 153 76 0
0.242374 -0.096505 -0.130150 0 255 0
-0.154523 -0.183020 -0.123467 0 255 0
0.126168 -0.244242 -0.045046 127 127 0
-0.067963 -0.249451 -0.058523 0 255 0
0.270646 -0.070610 -0.114867 0 255 0
-0.025608 0.707719 0.522376 153 76 0
0.207943 -0.133999 -0.101918 0 255 0
0.187398 -0.080530 -0.176880 0 255 0
-0.065720 -0.407528 -0.111176 255 0 0
-0.245098 -0.012080 0.006032 127 127 0
-0.284451 -0.005781 -0.131287 127 127 0
0.114861 -0.338535 -0.053332 127 127 0
0.015857 -0.026456 -0.060514 153 76 0
0.040246 0.362423 -0.041968 153 76 0
0.008972 0.122597 -0.058828 153 76 0
-0.184773 -0.136889 -0.085279 127 127 0
0.012316 0.264070 -0.039402 153 76 0
0.028671 0.565793 0.767315 76 0 153
-0.065417 -0.147921 -0.187743 255 0 0
-0.286344 -0.063624 -0.031148 127 127 0
-0.041451 -0.340634 0.009840 255 0 0
0.006532 0.672043 0.246819 153 76 0
0.010794 -0.388577 0.018310 255 0 0
0.171333 0.025582 -0.167441 0 255 0
-0.110922 -0.279083 -0.155878 0 255 0
-0.004598 0.655302 0.766326 153 76 0
0.169076 -0.177938 -0.155567 127 127 0
-0.113010 -0.374597 -0.065445 0 255 0
0.019994 -0.353270 -0.170590 127 127 0
0.202310 -0.114956 -0.161487 0 255 0
0.132339 -0.186178 -0.162190 127 127 0
-0.001296 -0.305749 -0.210132 255 0 0
0.024044 0.651819 0.517084 153 76 0
0.015901 -0.165197 0.017662 255 0 0
0.040596 -0.346115 -0.203971 255 0 0
0.111173 -0.402922 -0.072178 255 0 0
-0.015191 0.677001 0.271024 153 76 0
0.178107 -0.080104 -0.081028 0 255 0
-0.016074 0.574625 0.093333 153 76 0
-0.084152 -0.397849 -0.021374 255 0 0
0.038715 0.624807 0.206037 153 76 0
-0.026710 0.629500 0.675004 153 76 0
-0.081983 -0.375626 -0.043316 0 255 0
0.080974 -0.279883 -0.011781 255 0 0
0.013838 -0.240857 0.018073 255 0 0
0.190831 -0.241353 -0.132707 127 127 0
0.211724 -0.136552 -0.133634 0 255 0
0.114467 -0.361686 -0.120270 255 0 0
-0.131225 -0.292161 -0.101794 0 255 0
-0.063691 -0.332505 -0.002852 255 0 0
0.025993 -0.187374 0.015801 255 0 0
-0.066149 -0.181454 -0.097441 0 255 0
0.085864 -0.388250 -0.070132 127 127 0
-0.032147 0.687494 0.587795 153 76 0
0.099011 -0.171811 -0.113387 127 127 0
0.029298 0.637204 0.341635 153 76 0
0.040465 0.461384 0.022887 153 76 0
-0.076662 -0.296038 -0.178544 255 0 0
-0.150285 -0.147553 -0.008682 0 255 0
0.116855 -0.194727 -0.085753 255 0 0
0.117258 -0.310890 -0.139480 127 127 0
-0.097192 -0.187839 -0.022177 0 255 0
-0.109675 -0.135111 -0.084603 255 0 0
0.186659 -0.126640 -0.165626 0 255 0
-0.117809 -0.183090 -0.148202 0 255 0
-0.162710 -0.120266 -0.073325 127 127 0
0.083535 -0.203616 -0.116375 127 127 0
-0.122755 -0.159713 -0.143771 0 255 0
-0.179384 -0.257053 -0.111431 0 255 0
0.102159 -0.251051 -0.153347 255 0 0
-0.021745 -0.053566 -0.066752 153 76 0
-0.072860 -0.226559 -0.026658 0 255 0
-0.029513 -0.229196 0.013726 255 0 0
0.121155 -0.281373 -0.149387 127 127 0
-0.030041 -0.297259 -0.087481 0 255 0
0.081967 -0.289068 -0.184598 127 127 0
0.012717 0.199149 -0.055931 153 76 0
0.039783 0.679948 0.422610 153 76 0
0.023567 0.641899 0.195799 153 76 0
-0.084125 -0.256273 -0.045447 0 255 0
0.002664 0.443386 -0.033225 153 76 0
-0.034635 0.289944 -0.066430 153 76 0
-0.008603 0.088918 -0.131641 153 76 0
-0.037930 -0.350981 -0.024233 0 255 0
0.127788 -0.294791 -0.091070 127 127 0
0.003064 0.284490 -0.111027 153 76 0
-0.178471 -0.110623 -0.120813 127 127 0
-0.029127 0.541748 0.073129 153 76 0
0.154115 -0.141333 -0.057561 127 127 0
0.093568 -0.234280 -0.185131 127 127 0
0.041550 -0.406763 0.003796 255 0 0
0.099052 -0.189095 -0.181521 127 127 0
-0.066496 -0.121133 -0.120401 153 76 0
-0.297018 -0.015784 -0.034857 127 127 0
-0.120879 -0.297757 -0.025015 0 255 0
-0.106745 -0.251189 -0.062301 255 0 0
-0.022302 0.695148 0.628944 153 76 0
0.001538 0.527442 0.034597 153 76 0
-0.114376 -0.274442 -0.045819 0 255 0
-0.249731 -0.090147 -0.114501 127 127 0
0.072201 -0.407528 -0.134885 255 0 0
-0.143319 -0.259667 -0.058916 0 255 0
0.082460 -0.186047 -0.066804 127 127 0
-0.023390 0.651560 0.556845 153 76 0
-0.016583 0.616282 0.296112 153 76 0
0.023117 -0.128013 -0.175386 255 0 0
-0.279958 -0.091115 -0.051661 127 127 0
0.130205 -0.138461 -0.128767 127 127 0
-0.079920 -0.224319 -0.108741 0 255 0
0.099179 -0.183892 -0.158054 255 0 0
-0.131507 -0.137983 -0.097300 0 255 0
0.036791 0.123989 -0.080311 153 76 0
-0.195541 0.002936 -0.121668 127 127 0
-0.037925 -0.278299 -0.033888 0 255 0
0.114486 -0.196831 -0.048042 127 127 0
0.039566 0.605475 0.753528 76 0 153
0.153028 -0.040126 -0.169153 0 255 0
-0.066776 -0.235322 -0.074126 0 255 0
-0.300894 -0.057088 -0.057046 127 127 0
-0.186563 -0.256278 -0.083071 0 255 0
-0.011391 0.270400 -0.038909 153 76 0
-0.065334 -0.334724 -0.134393 0 255 0
0.153964 -0.146543 -0.099627 127 127 0
-0.171122 -0.216848 -0.059587 0 255 0
-0.041560 -0.319762 -0.052915 0 255 0
0.033986 0.226039 -0.108779 153 76 0
-0.101299 -0.348909 -0.097451 0 255 0
-0.168285 -0.053378 -0.105027 127 127 0
-0.103233 -0.354391 -0.139072 255 0 0
-0.002354 0.581454 0.784444 76 0 153
-0.033423 0.688145 0.535724 153 76 0
-0.028441 0.570643 0.738455 76 0 153
0.039905 0.672262 0.370517 153 76 0
0.095754 -0.193356 -0.029002 255 0 0
0.019438 0.321567 -0.093108 153 76 0
0.090777 -0.406382 -0.034187 255 0 0
-0.246731 0.007308 0.006242 127 127 0
0.013416 -0.371083 -0.209836 255 0 0
-0.212261 -0.165124 -0.083876 127 127 0
0.036958 -0.297382 -0.055337 127 127 0
0.093525 -0.294118 -0.165770 255 0 0
-0.135560 -0.252606 -0.120434 0 255 0
0.142990 -0.177967 -0.076449 127 127 0
-0.027323 0.030754 -0.118252 153 76 0
0.001336 -0.350332 -0.102655 127 127 0
0.156325 -0.150114 -0.140096 127 127 0
-0.011963 -0.000154 -0.061163 153 76 0
0.004864 0.688343 0.288664 153 76 0
-0.033886 0.682568 0.410349 153 76 0
-0.007258 0.718360 0.456064 153 76 0
0.029853 0.407786 0.020692 153 76 0
-0.194820 -0.068164 -0.071182 127 127 0
-0.079443 -0.184078 -0.015797 255 0 0
0.094678 -0.253363 -0.027468 255 0 0
0.028869 0.651031 0.752158 153 76 0
0.125640 -0.359093 -0.072710 127 127 0
-0.030970 0.392934 -0.040496 153 76 0
0.039066 -0.338831 0.012434 255 0 0
0.033807 0.655916 0.403713 153 76 0
0.118606 -0.146240 -0.141525 127 127 0
-0.164886 -0.219168 -0.109190 0 255 0
0.085736 -0.254222 -0.174839 255 0 0
-0.026530 -0.260349 0.014748 255 0 0
-0.043829 -0.202573 0.008463 255 0 0
-0.157738 -0.028497 -0.051235 127 127 0
0.074548 -0.407528 -0.081786 255 0 0
0.060623 -0.307162 -0.150035 127 127 0
0.202974 -0.189662 -0.161650 127 127 0
0.209322 -0.077326 -0.100568 0 255 0
-0.090003 -0.252368 -0.127850 0 255 0
0.012394 0.704577 0.352183 153 76 0
0.146774 -0.079358 -0.100522 0 255 0
0.037213 0.323570 -0.038202 153 76 0
-0.126076 -0.306675 -0.086385 0 255 0
-0.001178 0.641974 0.415974 153 76 0
-0.025983 0.640849 0.345441 153 76 0
0.134853 -0.341214 -0.147763 127 127 0
0.213553 0.027733 -0.080661 0 255 0
-0.010608 0.646029 0.435961 153 76 0
0.060499 -0.231660 -0.064669 127 127 0
-0.170266 -0.268448 -0.050335 0 255 0
0.009980 0.720696 0.491214 153 76 0
0.021069 0.559424 0.739590 76 0 153
0.000755 -0.350137 0.018301 255 0 0
0.112557 -0.132999 -0.107938 255 0 0
-0.021706 0.630091 0.650570 153 76 0
0.039971 0.679570 0.458858 153 76 0
0.046887 -0.090085 -0.121662 153 76 0
-0.033721 -0.000659 -0.090153 153 76 0
0.190035 -0.180411 -0.063491 127 127 0
-0.177587 -0.174308 -0.041831 0 255 0
-0.309967 -0.039831 -0.049487 127 127 0
-0.033673 0.618040 0.762173 76 0 153
-0.011005 0.718676 0.489932 153 76 0
0.076737 -0.124781 -0.077811 255 0 0
0.036407 0.650139 0.353077 153 76 0
0.265470 -0.074932 -0.151433 0 255 0
-0.096946 -0.398011 -0.039336 255 0 0
-0.074531 -0.224986 -0.180570 255 0 0
-0.016384 0.316767 -0.093411 153 76 0
-0.179815 -0.121790 -0.052932 127 127 0
0.017265 0.382140 -0.068058 153 76 0
0.039718 0.478480 0.052444 153 76 0
-0.000693 0.364006 0.005711 153 76 0
0.188009 -0.174263 -0.105791 127 127 0
-0.033423 0.259749 -0.088697 153 76 0
-0.025932 0.480366 0.010278 153 76 0
0.229121 -0.071867 -0.071323 0 255 0
0.077755 -0.407526 -0.047809 255 0 0
0.172693 -0.020411 -0.186677 0 255 0
0.107878 -0.185632 -0.141495 255 0 0
0.038038 0.690286 0.400370 153 76 0
0.162850 -0.180496 -0.081491 127 127 0
0.022997 0.621723 0.769430 76 0 153
0.070862 -0.170589 -0.094898 127 127 0
-0.031004 0.699748 0.498320 153 76 0
0.084129 -0.322107 -0.068708 127 127 0
0.154792 -0.049662 -0.089877 0 255 0
0.097223 -0.122327 -0.147700 127 127 0
-0.034454 0.453560 0.013662 153 76 0
-0.087489 -0.219719 -0.147759 0 255 0
-0.035438 -0.112478 -0.149231 153 76 0
0.011943 0.610651 0.782119 76 0 153
-0.022228 -0.276293 -0.051258 0 255 0
-0.164456 -0.075226 -0.049266 127 127 0
-0.243240 -0.098518 -0.032557 127 127 0
-0.010778 0.202405 -0.128999 153 76 0
-0.114667 -0.193782 -0.119725 0 255 0
0.159591 -0.274516 -0.160390 127 127 0
0.027414 -0.407528 -0.100415 255 0 0
-0.007171 0.627177 0.633232 153 76 0
0.020124 -0.348087 -0.089071 127 127 0
-0.097410 -0.189421 -0.102529 0 255 0
0.025401 0.706736 0.578588 153 76 0
-0.026753 -0.129514 -0.183597 255 0 0
-0.023285 0.635405 0.192566 153 76 0
0.166218 -0.175523 -0.189868 127 127 0
0.096182 -0.151419 -0.029421 255 0 0
0.048240 -0.358197 -0.180288 127 127 0
-0.025679 -0.333543 -0.124812 0 255 0
-0.123838 -0.141588 -0.062712 0 255 0
0.114651 -0.333426 -0.098446 127 127 0
0.014764 0.589166 0.735384 76 0 153
0.058487 -0.155363 -0.196080 255 0 0
-0.202301 -0.119801 -0.117926 127 127 0
0.172466 -0.280572 -0.129840 127 127 0
-0.100039 -0.334359 -0.152393 0 255 0
-0.031113 0.274644 -0.056806 153 76 0
-0.153779 -0.216873 -0.013950 0 255 0
-0.277568 -0.016572 -0.000897 127 127 0
-0.111499 -0.371692 -0.101077 255 0 0
-0.179736 -0.198967 -0.018536 0 255 0
-0.026428 0.473708 0.069407 153 76 0
0.039589 0.654372 0.669928 153 76 0
0.084853 -0.167188 -0.163048 127 127 0
0.011174 0.572369 0.212081 153 76 0
0.146466 -0.073340 -0.120665 0 255 0
0.143337 -0.323647 -0.076603 127 127 0
-0.224767 -0.009061 -0.138659 127 127 0
-0.159189 -0.235210 -0.143746 0 255 0
-0.008238 0.556448 0.183923 153 76 0
-0.014491 0.368065 -0.072144 153 76 0
-0.004570 -0.330101 -0.059395 0 255 0
0.117289 -0.212140 -0.092681 255 0 0
-0.025903 0.666642 0.708827 153 76 0
-0.039831 -0.407528 -0.143625 255 0 0
0.031394 0.598596 0.783696 76 0 153
-0.033712 -0.059525 -0.088284 153 76 0
-0.103416 -0.404859 -0.125662 255 0 0
-0.154237 -0.268838 -0.136320 0 255 0
0.108117 -0.385264 -0.152796 127 127 0
-0.029524 0.585984 0.128182 153 76 0
-0.155827 -0.165664 -0.150209 0 255 0
-0.000891 0.684049 0.702651 153 76 0
0.050623 -0.269004 -0.056435 127 127 0
-0.009681 0.246107 -0.118714 153 76 0
-0.048110 -0.216498 -0.063511 0 255 0
0.150748 -0.199863 -0.189243 127 127 0
-0.058403 -0.127816 -0.042593 255 0 0
0.098147 -0.131872 -0.048918 255 0 0
0.039400 0.664655 0.643543 153 76 0
0.009090 0.709222 0.610264 153 76 0
0.004210 -0.325684 -0.145381 127 127 0
0.179964 -0.014729 -0.067075 0 255 0
0.038480 -0.040715 -0.086286 153 76 0
0.015696 0.137511 -0.131078 153 76 0
-0.060206 -0.392130 -0.000456 255 0 0
0.118262 -0.388294 -0.134051 127 127 0
0.135105 -0.254095 -0.150394 127 127 0
0.012816 0.625524 0.158254 153 76 0
-0.216667 -0.077825 -0.104022 127 127 0
-0.027572 0.658425 0.431608 153 76 0
0.116767 -0.229942 -0.084525 255 0 0
0.010632 0.720312 0.510883 153 76 0
0.064699 -0.320199 0.000629 255 0 0
0.057274 -0.407528 -0.121502 255 0 0
-0.155972 -0.113642 -0.114699 127 127 0
-0.214716 -0.100714 -0.112715 127 127 0
0.002420 -0.146910 0.018565 255 0 0
-0.108944 -0.216697 -0.070074 255 0 0
-0.111036 -0.342658 -0.083570 255 0 0
0.091162 -0.271241 -0.168578 255 0 0
-0.005724 -0.288552 -0.106978 0 255 0
-0.192632 -0.126003 -0.030561 127 127 0
0.032755 -0.320999 -0.049314 127 127 0
-0.035865 -0.231504 -0.080358 0 255 0
0.227452 -0.012567 -0.200819 0 255 0
-0.006531 0.701776 0.637568 153 76 0
-0.128566 -0.311042 -0.140624 0 255 0
-0.118163 -0.318641 -0.097321 0 255 0
-0.075060 -0.163208 -0.079539 0 255 0
0.098057 -0.407523 -0.108966 255 0 0
0.083203 -0.389081 -0.013855 255 0 0
-0.017298 0.551563 0.168950 153 76 0
0.040620 0.549591 0.115184 153 76 0
0.073853 -0.156979 -0.129115 127 127 0
-0.055604 -0.259940 -0.194482 255 0 0
0.051959 -0.172104 0.007696 255 0 0
0.043978 -0.123422 -0.157347 255 0 0
0.003298 0.413594 -0.052097 153 76 0
-0.250380 -0.106646 -0.058215 127 127 0
-0.126243 -0.250640 -0.154103 0 255 0
0.024934 0.650719 0.442319 153 76 0
0.163553 -0.052657 -0.176566 0 255 0
-0.012647 -0.310140 -0.140144 0 255 0
0.196935 -0.072731 -0.071721 0 255 0
0.140007 -0.121813 -0.084647 0 255 0
-0.002188 -0.361729 -0.210091 255 0 0
0.024492 -0.302622 0.016582 255 0 0
-0.111335 -0.157142 -0.069418 0 255 0
0.092491 -0.340260 -0.146397 127 127 0
-0.283128 -0.004522 -0.033933 127 127 0
-0.154505 -0.197754 -0.150576 0 255 0
-0.218055 -0.197682 -0.094848 0 255 0
-0.209428 -0.137029 -0.109467 127 127 0
0.021886 -0.407490 -0.001396 255 0 0
0.022931 -0.052119 -0.128588 153 76 0
0.024659 -0.117665 -0.030716 255 0 0
-0.002786 -0.303212 -0.122037 0 255 0
-0.007270 0.073541 -0.059684 153 76 0
0.023778 0.709807 0.404251 153 76 0
0.176979 -0.132796 -0.114091 0 255 0
0.105645 -0.263897 -0.071659 127 127 0
0.025166 0.255917 -0.110877 153 76 0
-0.003643 -0.091860 -0.043553 153 76 0
0.059726 -0.379427 0.003636 255 0 0
-0.053671 -0.180602 0.003828 255 0 0
-0.175672 -0.176422 -0.010651 0 255 0
-0.108978 -0.196824 -0.070212 255 0 0
0.107885 -0.121304 -0.085359 127 127 0
-0.084056 -0.315541 -0.046731 0 255 0
0.069910 -0.355946 -0.067212 127 127 0
-0.098404 -0.126240 -0.061677 0 255 0
-0.305915 -0.046061 -0.085275 127 127 0
0.025997 -0.053416 -0.065559 153 76 0
0.010106 -0.407528 -0.058907 255 0 0
0.170941 -0.149243 -0.056827 127 127 0
-0.180791 -0.181831 -0.144147 0 255 0
0.238411 -0.054514 -0.065147 0 255 0
-0.285882 0.000937 -0.090019 127 127 0
-0.080011 -0.178035 -0.042309 0 255 0
0.103282 -0.274829 -0.041478 255 0 0
0.038047 0.444922 -0.003680 153 76 0
-0.224057 0.031694 -0.112152 127 127 0
0.132734 -0.093563 -0.117060 0 255 0
0.155285 -0.258790 -0.060221 127 127 0
-0.126897 -0.337220 -0.050158 0 255 0
-0.059545 -0.310089 0.000076 255 0 0
0.060088 -0.228760 -0.195201 255 0 0
0.117016 -0.167196 -0.104441 255 0 0
0.252047 0.003107 -0.186702 0 255 0
-0.021352 -0.026284 -0.125263 153 76 0
-0.174908 -0.002359 -0.103132 127 127 0
-0.125779 -0.132930 -0.135278 0 255 0
-0.207817 -0.211655 -0.056700 0 255 0
-0.231858 -0.110491 -0.095781 127 127 0
0.037429 -0.232849 -0.117828 127 127 0
-0.208347 -0.031570 0.000296 127 127 0
-0.144924 -0.272948 -0.080523 0 255 0
-0.191915 -0.172104 -0.096493 0 255 0
0.141622 -0.035810 -0.116425 0 255 0
-0.184094 0.021271 -0.042583 127 127 0
-0.138892 -0.167694 -0.121395 0 255 0
-0.108891 -0.353095 -0.121165 255 0 0
-0.178336 -0.208378 -0.098259 0 255 0
-0.051544 -0.281814 -0.118088 0 255 0
-0.055005 -0.407510 -0.170304 255 0 0
0.128948 -0.253719 -0.185235 127 127 0
-0.064636 -0.220508 -0.003154 255 0 0
0.027769 -0.266941 -0.083574 127 127 0
0.072266 -0.160818 -0.005077 255 0 0
-0.007238 0.655222 0.209811 153 76 0
0.115562 -0.216412 -0.159713 127 127 0
0.010872 0.173365 -0.058900 153 76 0
0.061054 -0.187674 -0.134964 127 127 0
-0.173254 -0.051792 -0.025666 127 127 0
-0.109392 -0.119345 -0.109666 0 255 0
-0.218306 -0.115035 -0.046927 127 127 0
0.036310 0.510110 0.095864 153 76 0
-0.203108 -0.225334 -0.068727 0 255 0
-0.114000 -0.203054 -0.151700 0 255 0
-0.216391 -0.083501 -0.031283 127 127 0
0.034263 -0.356291 0.013953 255 0 0
-0.067677 -0.261457 -0.021587 0 255 0
-0.004572 0.588221 0.239861 153 76 0
0.010099 -0.108166 -0.033853 153 76 0
-0.088926 -0.162733 -0.040586 0 255 0
-0.009047 -0.071207 -0.055854 153 76 0
-0.155565 -0.138742 -0.133774 0 255 0
0.007740 0.716591 0.559294 153 76 0
0.035709 0.702002 0.495792 153 76 0
0.126707 -0.267625 -0.046672 127 127 0
-0.207721 -0.024271 -0.137529 127 127 0
0.110769 -0.217698 -0.057435 255 0 0
0.151321 -0.095398 -0.136785 0 255 0
0.030940 0.534874 0.136992 153 76 0
-0.005663 0.340018 -0.087966 153 76 0
0.000509 0.632566 0.369099 153 76 0
0.025403 -0.259066 -0.104994 127 127 0
0.096527 -0.326954 -0.161855 255 0 0
0.012475 0.625990 0.335659 153 76 0
0.115575 -0.219795 -0.188939 127 127 0
-0.032316 0.035366 -0.084152 153 76 0
0.065016 -0.108318 -0.100577 153 76 0
0.125592 -0.143075 -0.186352 127 127 0
-0.086728 -0.376914 -0.062768 0 255 0
0.176652 -0.206182 -0.121618 127 127 0
0.027142 0.284491 -0.102197 153 76 0
-0.029106 -0.308156 -0.030659 0 255 0
0.008930 -0.129184 -0.010459 255 0 0
0.195425 -0.217963 -0.150501 127 127 0
-0.203107 -0.155831 -0.046578 127 127 0
0.068518 -0.401187 -0.187679 255 0 0
-0.065002 -0.213059 -0.038611 0 255 0
-0.011749 0.534247 0.043687 153 76 0
0.024940 0.426627 -0.035048 153 76 0
0.147310 -0.226729 -0.185326 127 127 0
0.025740 0.520387 0.126531 153 76 0
-0.093157 -0.210900 -0.052594 0 255 0
0.152818 -0.007929 -0.159861 0 255 0
-0.228025 -0.093513 -0.022989 127 127 0
0.031280 -0.353399 -0.142748 127 127 0
0.018012 0.465083 -0.014501 153 76 0
0.151122 -0.239883 -0.052917 127 127 0
-0.019169 0.422746 -0.038040 153 76 0
0.160857 -0.104683 -0.166995 0 255 0
-0.178169 -0.270092 -0.076244 0 255 0
-0.122689 -0.118481 -0.079211 0 255 0
-0.198265 0.028183 -0.024694 127 127 0
-0.033390 0.607650 0.221324 153 76 0
0.012016 0.374456 0.011435 153 76 0
0.064137 -0.238135 -0.171003 127 127 0
-0.069642 -0.407528 -0.137390 255 0 0
0.039751 -0.002210 -0.092992 153 76 0
0.175978 -0.264525 -0.142959 127 127 0
0.028352 0.193896 -0.122966 153 76 0
0.250575 -0.061670 -0.180732 0 255 0
0.038840 -0.370368 -0.152744 127 127 0
-0.086619 -0.239174 -0.047495 0 255 0
-0.107108 -0.358352 -0.063375 255 0 0
-0.009273 -0.390089 0.017962 255 0 0
0.093063 -0.371316 -0.170799 127 127 0
0.069526 -0.232582 -0.114356 127 127 0
-0.289328 -0.078696 -0.064901 127 127 0
-0.079196 -0.195679 -0.176126 255 0 0
0.097282 -0.118332 -0.099126 127 127 0
0.011290 -0.233173 -0.209931 255 0 0
0.032273 0.655571 0.556355 153 76 0
-0.183015 -0.027419 -0.127127 127 127 0
0.005991 0.391506 0.022943 153 76 0
-0.138930 -0.277327 -0.026356 0 255 0
-0.276136 0.003397 -0.047688 127 127 0
0.048753 -0.110500 -0.140087 153 76 0
-0.045681 -0.161093 0.007725 255 0 0
0.208962 -0.081853 -0.179499 0 255 0
-0.017595 0.608873 0.743193 76 0 153
-0.173204 -0.056742 -0.054766 127 127 0
-0.004598 0.032992 -0.058892 153 76 0
0.039159 0.666095 0.603948 153 76 0
-0.032275 0.070494 -0.083979 153 76 0
-0.114160 -0.140822 -0.025958 0 255 0
0.040215 0.500678 0.067538 153 76 0
0.066341 -0.371319 -0.191352 255 0 0
0.037672 0.664719 0.569985 153 76 0
-0.177899 -0.140448 -0.030387 127 127 0
0.226714 0.015365 -0.181853 0 255 0
-0.207799 -0.130632 -0.037401 127 127 0
-0.019546 0.057607 -0.065700 153 76 0
-0.018827 -0.407528 -0.143964 255 0 0
0.072437 -0.278612 -0.150845 127 127 0
0.210615 -0.023661 -0.199905 0 255 0
0.164440 -0.295654 -0.132330 127 127 0
-0.033793 0.647139 0.307800 153 76 0
-0.215379 0.007952 -0.131388 127 127 0
0.040025 0.195338 -0.094234 153 76 0
-0.152808 -0.249969 -0.103955 0 255 0
0.040008 0.264525 -0.081362 153 76 0
-0.100714 -0.273976 -0.015167 0 255 0
-0.052161 -0.260940 -0.096711 0 255 0
-0.013618 0.455262 -0.020700 153 76 0
0.099303 -0.304783 -0.183156 127 127 0
0.050249 -0.206011 -0.121958 127 127 0
-0.031811 0.670211 0.506940 153 76 0
0.029833 -0.254186 0.015360 255 0 0
0.035375 -0.094052 -0.052902 153 76 0
0.266063 -0.045800 -0.174133 0 255 0
0.177274 -0.112710 -0.169399 0 255 0
0.101999 -0.270649 -0.186413 127 127 0
0.220437 -0.098496 -0.158872 0 255 0
0.093872 -0.370742 -0.128228 127 127 0
0.150485 -0.121547 -0.165268 0 255 0
0.200747 -0.223924 -0.115209 127 127 0
-0.045858 -0.302987 -0.054968 0 255 0
-0.301545 -0.019580 -0.018526 127 127 0
-0.062298 -0.334624 -0.190207 255 0 0
0.207444 -0.147158 -0.120031 0 255 0
-0.032051 0.184850 -0.108229 153 76 0
-0.078843 -0.280677 -0.130931 0 255 0
0.114420 -0.277472 -0.120436 255 0 0
-0.033951 -0.037800 -0.096286 153 76 0
-0.025885 -0.312971 -0.071402 0 255 0
0.160237 0.016214 -0.107081 0 255 0
-0.032583 0.566401 0.114176 153 76 0
0.081810 -0.262699 -0.012502 255 0 0
-0.100698 -0.226502 -0.014567 0 255 0
-0.123087 -0.255439 -0.044004 0 255 0
0.008292 -0.204582 0.018149 255 0 0
0.031339 0.047160 -0.071161 153 76 0
0.024497 -0.327866 -0.208214 255 0 0
0.178833 -0.037241 -0.192967 0 255 0
0.248604 0.012443 -0.154057 0 255 0
0.042319 -0.220549 0.011629 255 0 0
0.183814 -0.172728 -0.140696 127 127 0
-0.042760 -0.243948 -0.046195 0 255 0
0.025923 0.453783 0.059262 153 76 0
-0.014358 -0.123256 -0.024123 255 0 0
0.039946 0.571258 0.151899 153 76 0
-0.099816 -0.269362 -0.147221 255 0 0
0.000729 -0.317104 -0.089207 127 127 0
-0.241503 -0.075405 -0.005703 127 127 0
0.031102 -0.153212 0.014496 255 0 0
-0.189625 -0.005687 -0.015417 127 127 0
-0.007749 0.236288 -0.047083 153 76 0
-0.299204 -0.033334 -0.109897 127 127 0
0.028693 -0.395743 -0.207227 255 0 0
-0.039477 -0.382899 0.010269 255 0 0
0.044492 -0.391429 0.010649 255 0 0
-0.177174 -0.105715 -0.045588 127 127 0
-0.195208 -0.160514 -0.124769 0 255 0
0.154431 -0.321329 -0.105766 127 127 0
-0.282656 -0.022663 -0.128372 127 127 0
-0.097607 -0.142227 -0.114484 0 255 0
-0.001557 -0.254085 0.018424 255 0 0
-0.140070 -0.157804 -0.148149 0 255 0
-0.003050 0.630777 0.617129 153 76 0
-0.250876 -0.031952 -0.139684 127 127 0
0.163249 -0.085639 -0.165431 0 255 0
-0.009884 0.672236 0.252194 153 76 0
-0.011946 -0.404376 -0.207108 255 0 0
0.078269 -0.317195 -0.154359 127 127 0
0.038044 0.680828 0.355964 153 76 0
-0.021665 0.656903 0.230396 153 76 0
0.046651 -0.130201 -0.014777 255 0 0
0.125681 -0.129349 -0.061678 127 127 0
-0.093535 -0.376356 -0.123145 0 255 0
0.151662 -0.258645 -0.121997 127 127 0
0.025492 0.016527 -0.126359 153 76 0
0.019945 0.695984 0.647893 153 76 0
0.010216 0.158052 -0.132615 153 76 0
0.013668 0.592447 0.782658 76 0 153
-0.088614 -0.306305 -0.017841 0 255 0
0.031409 0.512307 0.038524 153 76 0
0.024986 0.619058 0.298599 153 76 0
-0.111634 -0.313492 -0.115579 0 255 0
0.039400 0.169229 -0.101779 153 76 0
-0.033973 0.595112 0.162798 153 76 0
-0.200607 -0.068216 -0.111449 127 127 0
-0.251602 0.014504 -0.138261 127 127 0
0.009949 -0.292785 -0.098992 127 127 0
-0.021876 -0.257707 -0.098525 0 255 0
0.097353 -0.153516 -0.069612 127 127 0
-0.066151 -0.241735 -0.103789 0 255 0
-0.032809 0.506187 0.048813 153 76 0
0.206761 -0.079869 -0.159787 0 255 0
0.024705 0.249770 -0.049515 153 76 0
-0.002171 0.608777 0.689251 153 76 0
-0.052615 -0.229623 -0.196181 255 0 0
-0.030456 0.665891 0.469761 153 76 0
0.011467 0.305709 -0.022855 153 76 0
-0.022164 0.512816 0.114620 153 76 0
-0.115219 -0.216135 -0.011965 0 255 0
-0.171347 -0.273466 -0.109836 0 255 0
-0.077833 -0.339168 -0.160213 0 255 0
0.085050 -0.358677 -0.074166 127 127 0
0.291108 -0.023966 -0.150983 0 255 0
-0.020822 -0.313658 -0.097534 0 255 0
0.021979 0.625974 0.654458 153 76 0
0.113146 -0.327528 -0.124877 255 0 0
-0.154563 -0.248308 -0.064255 0 255 0
0.119322 -0.325869 -0.170701 127 127 0
0.037710 0.609360 0.771408 76 0 153
-0.029712 0.590295 0.740535 76 0 153
0.123530 -0.354431 -0.153658 127 127 0
-0.033674 0.183509 -0.089058 153 76 0
-0.019048 -0.133218 0.011137 255 0 0
-0.047559 -0.407528 -0.107476 255 0 0
0.044799 -0.276689 -0.202368 255 0 0
0.037846 0.160194 -0.083578 153 76 0
-0.108962 -0.272950 -0.120916 255 0 0
0.041407 -0.301808 0.011779 255 0 0
0.085827 -0.365407 -0.016525 255 0 0
0.120410 -0.158698 -0.152653 127 127 0
0.093172 -0.405400 -0.162162 255 0 0
0.100465 -0.136684 -0.166314 127 127 0
0.163218 -0.143379 -0.124776 0 255 0
-0.245966 -0.009388 -0.140317 127 127 0
0.107181 -0.294806 -0.152631 127 127 0
-0.160608 -0.296469 -0.066530 0 255 0
-0.075149 -0.151318 -0.011673 255 0 0
-0.021970 -0.407528 -0.175079 255 0 0
-0.033997 0.376515 -0.039185 153 76 0
0.216226 0.003675 -0.060421 0 255 0
0.051220 -0.349718 -0.037776 127 127 0
0.099371 -0.407490 -0.125650 255 0 0
-0.023321 0.627084 0.310014 153 76 0
0.039792 0.622252 0.239805 153 76 0
-0.161050 -0.300334 -0.091933 0 255 0
0.142861 -0.276289 -0.123975 127 127 0
0.015208 -0.354745 -0.067423 127 127 0
-0.262665 -0.047374 -0.004122 127 127 0
-0.032455 0.670421 0.538960 153 76 0
-0.007462 0.468781 0.081284 153 76 0
-0.053278 -0.135687 0.001834 255 0 0
-0.032714 0.666356 0.666615 153 76 0
-0.162840 -0.064370 -0.087254 127 127 0
0.109059 -0.249406 -0.138257 255 0 0
0.015606 0.681848 0.703661 153 76 0
-0.030315 -0.248418 -0.109879 0 255 0
0.050667 -0.285927 -0.174172 127 127 0
-0.144605 -0.329038 -0.082553 0 255 0
-0.210008 0.035606 -0.056100 127 127 0
-0.048174 -0.325229 -0.198377 255 0 0
-0.193644 -0.037870 -0.004295 127 127 0
-0.089803 -0.137139 -0.029183 255 0 0
0.252678 -0.084133 -0.158472 0 255 0
-0.111615 -0.230461 -0.091694 255 0 0
-0.078622 -0.390140 -0.176631 255 0 0
0.037621 0.668784 0.531600 153 76 0
0.201929 -0.053150 -0.059558 0 255 0
0.032277 0.498800 0.027827 153 76 0
0.014884 -0.292054 -0.137625 127 127 0
0.031696 0.618001 0.701199 153 76 0
0.028287 -0.407526 -0.188549 255 0 0
0.137325 -0.221895 -0.158211 127 127 0
-0.185147 -0.243764 -0.049854 0 255 0
-0.033578 0.345673 -0.035829 153 76 0
0.157656 -0.154649 -0.193393 127 127 0
0.011231 -0.282954 0.018304 255 0 0
0.277479 -0.020224 -0.176479 0 255 0
-0.095928 -0.248492 -0.154475 255 0 0
-0.068565 -0.273404 -0.155507 0 255 0
-0.020329 0.599765 0.128509 153 76 0
-0.004450 0.635857 0.599290 153 76 0
-0.021396 -0.274117 -0.207724 255 0 0
0.107485 -0.155313 -0.110959 127 127 0
-0.026603 -0.278333 -0.133546 0 255 0
0.265229 0.003060 -0.105004 0 255 0
0.039627 -0.024546 -0.091175 153 76 0
0.093550 -0.219379 -0.049528 127 127 0
0.039570 0.128361 -0.097516 153 76 0
-0.033591 0.612418 0.188466 153 76 0
0.040045 -0.309133 -0.088758 127 127 0
-0.012917 0.409595 0.030175 153 76 0
0.013327 0.608832 0.736048 76 0 153
-0.268555 -0.098438 -0.075097 127 127 0
0.269667 0.001708 -0.072855 0 255 0
0.185879 -0.129552 -0.081191 0 255 0
-0.086936 -0.359597 -0.166976 255 0 0
-0.209949 -0.124874 -0.059638 127 127 0
-0.060568 -0.112770 -0.080339 153 76 0
-0.091379 -0.147183 -0.051304 0 255 0
0.054960 -0.340771 -0.197819 255 0 0
-0.029102 -0.384197 -0.205979 255 0 0
0.228511 -0.087615 -0.107150 0 255 0
0.027651 0.646040 0.392013 153 76 0
0.238444 0.019433 -0.118002 0 255 0
-0.009570 -0.337034 -0.090429 127 127 0
0.040382 0.299118 -0.065813 153 76 0
0.036416 -0.213856 -0.205406 255 0 0
0.034200 0.672752 0.292574 153 76 0
-0.086140 -0.221927 -0.168016 255 0 0
0.038599 0.656241 0.277821 153 76 0
-0.020036 0.171811 -0.065544 153 76 0
-0.091170 -0.258354 -0.030078 255 0 0
0.085877 -0.218112 -0.175125 255 0 0
0.064457 -0.262562 -0.050302 127 127 0
0.109011 -0.338643 -0.172483 127 127 0
0.092552 -0.202658 -0.167019 255 0 0
0.066954 -0.352393 -0.151805 127 127 0
-0.012846 0.157780 -0.130182 153 76 0
0.111769 -0.297160 -0.062389 255 0 0
-0.012087 -0.124298 -0.170936 255 0 0
-0.038624 -0.101775 -0.137201 153 76 0
-0.049139 -0.217705 -0.110695 0 255 0
0.110250 -0.269301 -0.056867 255 0 0
0.209475 0.032064 -0.135272 0 255 0
-0.019750 0.013605 -0.065545 153 76 0
-0.163231 -0.090910 -0.109558 127 127 0
-0.170786 -0.025989 -0.115129 127 127 0
0.012403 0.053281 -0.059264 153 76 0
-0.027089 -0.407528 -0.061310 255 0 0
0.138392 -0.287578 -0.056019 127 127 0
-0.030713 -0.097236 -0.051117 153 76 0
0.033813 0.650572 0.233736 153 76 0
-0.054964 -0.359539 -0.045321 0 255 0
0.155129 -0.108162 -0.110337 0 255 0
0.080466 -0.407528 -0.100586 255 0 0
0.035765 0.617895 0.261040 153 76 0
0.074601 -0.303599 -0.040193 127 127 0
-0.109310 -0.303455 -0.071566 255 0 0
-0.230647 -0.124847 -0.059970 127 127 0
0.007489 -0.397428 -0.209844 255 0 0
-0.042910 -0.083492 -0.082401 153 76 0
0.144550 -0.061434 -0.131938 0 255 0
0.034275 0.518607 0.109887 153 76 0
0.092552 -0.131401 -0.125509 255 0 0
-0.009097 -0.191787 0.018191 255 0 0
0.175203 -0.064273 -0.148844 0 255 0
0.103042 -0.178513 -0.040519 255 0 0
-0.106275 -0.267442 -0.060909 255 0 0
0.013087 0.070001 -0.132161 153 76 0
0.037044 0.542695 0.080865 153 76 0
0.065686 -0.258945 -0.191755 255 0 0
-0.074456 -0.329269 -0.180765 255 0 0
-0.221193 -0.075595 -0.130145 127 127 0
0.083641 -0.134717 -0.175234 255 0 0
0.054176 -0.120374 -0.047153 255 0 0
0.057034 -0.103085 -0.071543 153 76 0
0.263675 -0.083402 -0.122134 0 255 0
-0.009748 0.285399 -0.032694 153 76 0
0.175573 -0.211124 -0.176265 127 127 0
-0.314913 -0.023082 -0.074852 127 127 0
0.029614 0.619178 0.166181 153 76 0
-0.206174 -0.115150 -0.031439 127 127 0
0.057967 -0.331713 -0.151732 127 127 0
0.154457 0.010501 -0.140307 0 255 0
-0.035746 -0.350222 -0.203694 255 0 0
-0.146261 -0.228072 -0.044838 0 255 0
0.027989 -0.315904 -0.166696 127 127 0
0.200596 -0.101653 -0.090893 0 255 0
-0.167416 -0.225462 -0.021971 0 255 0
-0.105515 -0.220544 -0.132277 255 0 0
-0.030364 0.698822 0.441185 153 76 0
-0.034989 -0.340821 -0.150443 0 255 0
-0.057933 -0.193506 -0.076420 0 255 0
0.024452 -0.330495 -0.119213 127 127 0
0.050182 -0.186132 -0.200134 255 0 0
0.102344 -0.168809 -0.153065 255 0 0
-0.195052 -0.071405 -0.030040 127 127 0
-0.193050 0.029288 -0.100843 127 127 0
0.035047 0.664738 0.489569 153 76 0
-0.077265 -0.215723 -0.076086 0 255 0
-0.109995 -0.219349 -0.040813 0 255 0
0.004865 0.605046 0.280458 153 76 0
-0.095173 -0.360448 -0.086443 0 255 0
0.212063 -0.040792 -0.057204 0 255 0
-0.090116 -0.272000 -0.043148 0 255 0
-0.185483 -0.127690 -0.121672 127 127 0
0.090478 -0.226622 -0.021882 255 0 0
0.161775 -0.100714 -0.150470 0 255 0
-0.062178 -0.208216 -0.122669 0 255 0
0.058958 -0.213673 -0.155116 127 127 0
-0.033885 0.538960 0.088300 153 76 0
0.184164 0.015154 -0.075590 0 255 0
0.143526 -0.009743 -0.127435 0 255 0
-0.056590 -0.300576 -0.193875 255 0 0
0.116910 -0.198814 -0.159061 127 127 0
-0.176741 0.000947 -0.035432 127 127 0
-0.103911 -0.189113 -0.054294 255 0 0
-0.080554 -0.242805 -0.151749 0 255 0
0.143168 -0.037316 -0.147979 0 255 0
0.074651 -0.245151 -0.050540 127 127 0
-0.044124 -0.407528 -0.039324 255 0 0
0.030552 -0.247431 -0.117528 127 127 0
-0.010093 -0.077638 -0.138078 153 76 0
-0.092074 -0.188908 -0.077442 0 255 0
-0.132809 -0.130790 -0.036121 0 255 0
-0.080299 -0.186129 -0.127705 0 255 0
-0.259225 -0.092427 -0.031594 127 127 0
0.081694 -0.391281 -0.152014 127 127 0
0.013944 -0.329456 -0.058879 127 127 0
0.245839 0.016983 -0.100872 0 255 0
-0.123523 -0.327699 -0.137793 0 255 0
0.064147 -0.242793 0.000818 255 0 0
-0.236888 0.017262 -0.016063 127 127 0
-0.193847 0.045453 -0.064133 127 127 0
-0.050028 -0.096260 -0.111586 153 76 0
-0.001482 0.629718 0.755858 76 0 153
-0.033944 0.685493 0.491494 153 76 0
0.110091 -0.233130 -0.159080 127 127 0
0.035488 0.533493 0.065627 153 76 0
0.144886 -0.165629 -0.192473 127 127 0
0.164748 -0.194576 -0.153324 127 127 0
0.040368 0.446409 0.017064 153 76 0
0.026149 -0.085936 -0.138822 153 76 0
0.038942 0.637921 0.290187 153 76 0
-0.063873 -0.163858 -0.188995 255 0 0
0.158316 -0.090477 -0.099603 0 255 0
0.013875 -0.269356 -0.209815 255 0 0
-0.018551 0.006013 -0.127213 153 76 0
0.074864 -0.126304 -0.127040 255 0 0
0.125835 -0.115039 -0.140541 0 255 0
-0.032015 0.499326 0.079933 153 76 0
-0.036078 -0.407528 -0.082918 255 0 0
0.023897 0.703353 0.612070 153 76 0
0.161155 -0.227767 -0.138069 127 127 0
0.017893 0.528886 0.039700 153 76 0
-0.032085 0.632652 0.753351 153 76 0
0.163994 -0.301788 -0.112785 127 127 0
-0.071976 -0.124238 -0.103566 153 76 0
-0.108244 -0.233905 -0.155181 0 255 0
-0.013099 0.710948 0.574079 153 76 0
-0.033460 0.648759 0.262901 153 76 0
-0.063129 -0.252907 -0.002003 255 0 0
-0.032886 0.115913 -0.105755 153 76 0
-0.014916 0.633962 0.355327 153 76 0
0.138051 -0.161909 -0.049057 127 127 0
-0.015230 -0.311869 -0.039386 0 255 0
0.012985 0.549902 0.173963 153 76 0
-0.065687 -0.240822 -0.027212 0 255 0
-0.220029 0.008755 -0.000974 127 127 0
0.020853 0.119509 -0.129285 153 76 0
-0.222339 0.035959 -0.071510 127 127 0
0.035575 -0.361603 -0.205695 255 0 0
-0.031291 -0.044126 -0.110691 153 76 0
-0.010438 0.581641 0.226006 153 76 0
0.074244 -0.129199 -0.046027 255 0 0
0.208092 -0.116860 -0.130819 0 255 0
-0.032323 0.147626 -0.084183 153 76 0
0.132336 -0.299055 -0.121286 127 127 0
-0.007154 0.670040 0.732337 153 76 0
0.022098 -0.407528 -0.129609 255 0 0
-0.275463 0.002835 -0.119993 127 127 0
-0.218156 -0.046399 0.002564 127 127 0
-0.009597 -0.252325 -0.209691 255 0 0
0.168100 0.007286 -0.172641 0 255 0
-0.052960 -0.308235 -0.129750 0 255 0
0.190584 -0.104001 -0.168714 0 255 0
0.096799 -0.391592 -0.056908 127 127 0
-0.093132 -0.355730 -0.110110 0 255 0
-0.111509 -0.258170 -0.100352 255 0 0
-0.019537 0.504948 0.023795 153 76 0
0.086614 -0.381869 -0.084904 127 127 0
0.206103 -0.170747 -0.147129 127 127 0
0.006374 0.599837 0.117199 153 76 0
-0.274664 -0.088708 -0.036860 127 127 0
0.144728 -0.213509 -0.078369 127 127 0
-0.025391 -0.170588 -0.206836 255 0 0
0.204596 -0.198393 -0.088062 127 127 0
0.012365 0.647198 0.501828 153 76 0
0.058659 -0.207009 0.004053 255 0 0
0.029196 0.593572 0.751730 76 0 153
-0.130754 -0.307474 -0.034586 0 255 0
0.073457 -0.130025 -0.149978 255 0 0
-0.033210 0.667963 0.571415 153 76 0
0.004286 0.211282 -0.129633 153 76 0
0.036545 0.652965 0.719170 153 76 0
-0.106057 -0.170196 -0.130639 255 0 0
0.218809 -0.175395 -0.105869 127 127 0
0.028698 -0.140199 -0.207134 255 0 0
-0.108800 -0.236529 -0.121481 255 0 0
-0.194407 -0.129452 -0.058745 127 127 0
-0.137081 -0.295487 -0.139780 0 255 0
0.081529 -0.208960 -0.058195 127 127 0
0.016625 0.707085 0.371450 153 76 0
0.161014 -0.057452 -0.145757 0 255 0
0.040387 0.375688 -0.033328 153 76 0
0.040160 0.429251 -0.002951 153 76 0
-0.022268 0.299150 -0.034567 153 76 0
-0.040828 -0.144604 -0.201584 255 0 0
-0.032321 0.694753 0.468077 153 76 0
-0.035094 -0.128870 -0.021263 255 0 0
-0.050677 -0.273306 0.005601 255 0 0
-0.010427 0.583060 0.721990 76 0 153
-0.214028 -0.121497 -0.090002 127 127 0
0.019881 0.595975 0.248808 153 76 0
0.024533 0.361481 -0.003338 153 76 0
-0.211571 -0.005850 -0.002086 127 127 0
0.076179 -0.407528 -0.066072 255 0 0
0.063665 -0.353038 -0.192999 255 0 0
-0.062507 -0.407528 -0.095584 255 0 0
-0.016968 -0.223637 -0.208515 255 0 0
0.020385 0.470385 0.078304 153 76 0
-0.029402 0.230473 -0.065788 153 76 0
0.006199 0.308141 -0.102106 153 76 0
-0.043702 -0.129405 -0.172905 255 0 0
-0.032534 0.684578 0.377211 153 76 0
-0.004676 0.622823 0.648185 153 76 0
0.116578 -0.367936 -0.082104 255 0 0
-0.120320 -0.152761 -0.102736 0 255 0
0.200539 0.037036 -0.116204 0 255 0
-0.111629 -0.190001 -0.091893 255 0 0
-0.088002 -0.201119 -0.141323 0 255 0
0.030082 0.133520 -0.069717 153 76 0
0.019340 -0.407528 -0.023657 255 0 0
0.091402 -0.305554 -0.040402 127 127 0
0.006050 -0.129089 -0.182098 255 0 0
0.028826 0.708837 0.536455 153 76 0
0.074671 -0.265039 -0.078452 127 127 0
0.153861 -0.296708 -0.075412 127 127 0
-0.193724 -0.093981 -0.114072 127 127 0
-0.071536 -0.309738 -0.133237 0 255 0
-0.071010 -0.407528 -0.053727 255 0 0
-0.012288 -0.223229 0.017688 255 0 0
-0.005877 0.398970 -0.059877 153 76 0
0.157154 -0.025479 -0.175934 0 255 0
-0.183678 -0.189559 -0.105064 0 255 0
-0.042247 -0.302843 -0.154801 0 255 0
-0.125225 -0.164559 -0.114359 0 255 0
-0.167693 -0.210246 -0.016869 0 255 0
-0.027989 -0.013468 -0.117213 153 76 0
0.242917 -0.034518 -0.064474 0 255 0
0.024837 0.089032 -0.126865 153 76 0
0.007407 -0.407527 -0.186971 255 0 0
-0.084251 -0.149749 -0.065337 0 255 0
0.007019 -0.175640 -0.210124 255 0 0
-0.182300 0.017917 -0.092394 127 127 0
-0.102573 -0.171386 -0.088273 0 255 0
0.092642 -0.407492 -0.144943 255 0 0
0.244487 -0.034950 -0.193216 0 255 0
-0.029226 0.658917 0.414214 153 76 0
-0.017776 -0.273618 -0.116101 0 255 0
0.291563 -0.029909 -0.131630 0 255 0
0.147830 -0.014707 -0.100238 0 255 0
-0.013856 -0.190630 -0.209012 255 0 0
0.028447 -0.016069 -0.123767 153 76 0
-0.170944 -0.282134 -0.094641 0 255 0
-0.030593 0.050552 -0.112840 153 76 0
0.022299 0.646791 0.415720 153 76 0
-0.006078 0.357264 -0.080670 153 76 0
-0.027430 0.046380 -0.073281 153 76 0
-0.211930 -0.149091 -0.099845 127 127 0
0.097053 -0.391825 -0.030837 255 0 0
-0.015739 0.714441 0.535786 153 76 0
0.094956 -0.287747 -0.027865 255 0 0
0.013816 0.096399 -0.059727 153 76 0
0.027973 0.234304 -0.055635 153 76 0
-0.080987 -0.158538 -0.101691 0 255 0
0.037377 0.632683 0.696662 153 76 0
-0.103345 -0.385533 -0.072142 0 255 0
0.126232 -0.375684 -0.129438 127 127 0
0.190260 0.033475 -0.167146 0 255 0
0.000835 0.559676 0.732427 76 0 153
0.164042 -0.231825 -0.111312 127 127 0
-0.064095 -0.359354 -0.188828 255 0 0
0.005225 0.714592 0.397139 153 76 0
-0.032668 0.592768 0.769087 76 0 153
0.018048 0.546004 0.056378 153 76 0
0.057072 -0.268719 0.005195 255 0 0
-0.030970 0.428665 -0.017730 153 76 0
-0.029928 -0.062957 -0.117904 153 76 0
0.107240 -0.146823 -0.176448 127 127 0
0.071039 -0.313171 -0.068818 127 127 0
-0.071266 -0.282938 -0.046358 0 255 0
0.043021 -0.170336 -0.203106 255 0 0
-0.118323 -0.184676 -0.043091 0 255 0
0.180738 -0.110916 -0.078522 0 255 0
-0.131734 -0.177920 -0.009874 0 255 0
0.138363 -0.093279 -0.102408 0 255 0
0.266390 -0.002752 -0.171652 0 255 0
0.035644 -0.034949 -0.114104 153 76 0
-0.033598 0.649392 0.678433 153 76 0
0.007924 0.104251 -0.132903 153 76 0
-0.012707 0.612777 0.139940 153 76 0
-0.059451 -0.132967 -0.181393 255 0 0
0.218879 0.026385 -0.155628 0 255 0
0.106153 -0.137142 -0.143388 255 0 0
-0.134926 -0.282957 -0.067407 0 255 0
0.121750 -0.321684 -0.106056 127 127 0
-0.205319 -0.187912 -0.125707 0 255 0
0.126933 -0.175189 -0.190104 127 127 0
-0.100075 -0.365790 -0.041029 0 255 0
-0.031890 -0.156314 0.012980 255 0 0
-0.020740 -0.339874 -0.050460 0 255 0
-0.005130 0.524386 0.141900 153 76 0
-0.034159 0.421152 0.005548 153 76 0
-0.149428 -0.187390 -0.036640 0 255 0
-0.005248 -0.335761 -0.136106 127 127 0
0.000467 -0.343227 -0.065912 127 127 0
-0.142515 -0.305343 -0.044454 0 255 0
-0.103744 -0.331496 -0.137631 255 0 0
-0.105361 -0.243834 -0.013303 0 255 0
-0.114725 -0.118466 -0.095066 0 255 0
0.111167 -0.321708 -0.060597 255 0 0
-0.020500 -0.407528 -0.112767 255 0 0
0.069040 -0.378761 -0.046366 127 127 0
-0.246789 0.018839 -0.029200 127 127 0
0.173900 -0.198647 -0.141545 127 127 0
0.238721 0.016592 -0.068412 0 255 0
-0.014966 0.521848 0.035049 153 76 0
0.185938 -0.254655 -0.110006 127 127 0
-0.192186 -0.243334 -0.066348 0 255 0
-0.091797 -0.376785 -0.095520 0 255 0
0.035174 0.280969 -0.052246 153 76 0
0.034341 0.630975 0.774851 153 76 0
-0.134759 -0.115459 -0.059101 127 127 0
-0.080491 -0.147981 -0.174679 255 0 0
-0.096888 -0.289169 -0.044716 0 255 0
0.037462 0.072926 -0.109119 153 76 0
-0.033811 0.433823 0.016090 153 76 0
-0.192367 -0.187805 -0.067350 0 255 0
0.169213 -0.241842 -0.168473 127 127 0
0.123975 -0.296079 -0.140588 127 127 0
-0.031561 0.340007 -0.065177 153 76 0
-0.002517 0.648823 0.780711 153 76 0
0.035506 0.432449 0.028394 153 76 0
-0.133536 -0.346876 -0.077233 0 255 0
0.121124 -0.149820 -0.055804 127 127 0
-0.153864 -0.149283 -0.148799 0 255 0
0.019998 0.487847 0.095296 153 76 0
-0.167109 -0.092061 -0.050986 127 127 0
0.195889 -0.017859 -0.060484 0 255 0
0.082856 -0.168153 -0.013502 255 0 0
-0.087124 -0.204958 -0.024799 255 0 0
0.286806 -0.022461 -0.099657 0 255 0
-0.201002 -0.229202 -0.092229 0 255 0
0.037894 0.485496 0.066667 153 76 0
0.177478 -0.042932 -0.065950 0 255 0
0.126145 -0.251587 -0.075774 127 127 0
-0.208932 -0.064319 -0.004135 127 127 0
-0.003889 0.719553 0.524681 153 76 0
0.015794 0.605820 0.127774 153 76 0
0.006866 -0.352349 -0.161397 127 127 0
0.177190 -0.095332 -0.079139 0 255 0
-0.004993 0.616794 0.310358 153 76 0
0.232348 -0.100865 -0.140946 0 255 0
0.058623 -0.362031 0.004196 255 0 0
-0.099855 -0.133234 -0.128498 255 0 0
0.147379 -0.172117 -0.163343 127 127 0
-0.031741 0.083029 -0.109294 153 76 0
-0.212696 -0.179052 -0.044930 0 255 0
0.091956 -0.372885 -0.046967 127 127 0
-0.001827 0.640403 0.563805 153 76 0
-0.099593 -0.286703 -0.147669 255 0 0
0.062504 -0.204088 -0.078755 127 127 0
0.169568 -0.179344 -0.052494 127 127 0
-0.034112 0.626170 0.250296 153 76 0
-0.033349 0.097445 -0.104323 153 76 0
-0.070889 -0.303504 -0.007995 255 0 0
0.021960 0.715385 0.523543 153 76 0
0.061362 -0.132021 -0.183655 255 0 0
0.050124 -0.241523 -0.070087 127 127 0
-0.010816 -0.407528 -0.058946 255 0 0
0.178808 -0.068432 -0.180625 0 255 0
0.102124 -0.349816 -0.153470 255 0 0
-0.033670 0.256966 -0.071124 153 76 0
0.017791 0.563554 0.780326 76 0 153
-0.093087 -0.300520 -0.032845 255 0 0
-0.144981 -0.321404 -0.064659 0 255 0
-0.242660 -0.094227 -0.085007 127 127 0
-0.133882 -0.214307 -0.125585 0 255 0
-0.032006 0.657308 0.697232 153 76 0
0.037612 0.237009 -0.098812 153 76 0
-0.173826 -0.158861 -0.112615 0 255 0
-0.013128 0.647704 0.530284 153 76 0
-0.068188 -0.186999 -0.111507 0 255 0
-0.070241 -0.192551 -0.045017 0 255 0
-0.066946 -0.126197 -0.137428 153 76 0
0.078496 -0.154233 -0.096442 127 127 0
-0.091682 -0.391002 -0.160633 255 0 0
0.025966 -0.332159 -0.169562 127 127 0
-0.034241 0.222674 -0.084827 153 76 0
-0.033867 0.153148 -0.098380 153 76 0
-0.033834 0.666314 0.620993 153 76 0
-0.000995 -0.407528 -0.073355 255 0 0
0.128823 -0.191565 -0.076022 127 127 0
0.043230 -0.244542 -0.151649 127 127 0
0.111598 -0.196015 -0.131007 255 0 0
0.016557 0.627933 0.753062 76 0 153
0.151826 -0.112034 -0.125395 0 255 0
0.114931 -0.222127 -0.071387 255 0 0
0.010058 -0.309630 -0.076425 127 127 0
0.116291 -0.370460 -0.152281 127 127 0
-0.111539 -0.304877 -0.152767 0 255 0
-0.099498 -0.164505 -0.028796 0 255 0
0.115755 -0.140282 -0.077494 255 0 0
-0.164717 -0.134276 -0.081271 127 127 0
0.231256 -0.025920 -0.059675 0 255 0
-0.032542 0.687686 0.570128 153 76 0
-0.198723 -0.194396 -0.028870 0 255 0
0.100529 -0.286096 -0.071058 127 127 0
0.117061 -0.346507 -0.089518 255 0 0
0.039040 0.687406 0.541883 153 76 0
0.119870 -0.164325 -0.085821 127 127 0
0.293740 -0.012764 -0.123900 0 255 0
-0.002036 0.348546 -0.003636 153 76 0
-0.018177 0.714026 0.466863 153 76 0
-0.174546 -0.102536 -0.030602 127 127 0
0.166604 -0.057991 -0.096555 0 255 0
-0.031691 -0.253155 -0.056609 0 255 0
-0.030460 0.612796 0.172952 153 76 0
0.014719 0.158764 -0.060071 153 76 0
0.191299 -0.229168 -0.088598 127 127 0
0.089889 -0.328874 -0.040624 127 127 0
-0.006049 0.647117 0.501786 153 76 0
0.013979 0.332322 -0.012288 153 76 0
0.046002 -0.078120 -0.085651 153 76 0
-0.089984 -0.313184 -0.158744 0 255 0
-0.158484 -0.153556 -0.042411 0 255 0
0.090490 -0.221507 -0.148348 127 127 0
0.229218 -0.089162 -0.131267 0 255 0
-0.095183 -0.198946 -0.036075 255 0 0
-0.309698 -0.018327 -0.106662 127 127 0
-0.020386 0.584154 0.773249 76 0 153
0.001743 -0.317034 -0.055209 0 255 0
0.187408 -0.195154 -0.065921 127 127 0
-0.109992 -0.196252 -0.014745 0 255 0
0.277776 -0.002845 -0.084740 0 255 0
-0.280011 -0.088312 -0.093409 127 127 0
0.096629 -0.130949 -0.107367 255 0 0
0.082704 -0.232882 -0.085596 127 127 0
-0.216067 0.035366 -0.099904 127 127 0
-0.088976 -0.340070 -0.027212 255 0 0
0.063040 -0.182807 -0.101042 127 127 0
0.031630 0.551076 0.768571 76 0 153
-0.009296 0.603671 0.782630 76 0 153
-0.038262 -0.086462 -0.068390 153 76 0
-0.023849 0.575110 0.785661 76 0 153
-0.144884 -0.090976 -0.073007 127 127 0
0.002121 0.643910 0.444030 153 76 0
-0.034752 0.553083 0.122155 153 76 0
-0.141251 -0.161719 -0.037353 0 255 0
-0.034243 -0.191572 0.012139 255 0 0
0.186137 -0.240627 -0.146981 127 127 0
0.199627 -0.163430 -0.086953 127 127 0
0.065042 -0.252488 -0.175410 127 127 0
-0.024582 0.617448 0.281345 153 76 0
0.160948 -0.055207 -0.112808 0 255 0
-0.053071 -0.404575 -0.193738 255 0 0
-0.097887 -0.292401 -0.130093 0 255 0
0.174968 -0.148328 -0.168109 0 255 0
-0.096767 -0.315121 -0.038731 255 0 0
-0.022878 -0.038668 -0.068322 153 76 0
0.121282 -0.392391 -0.107899 127 127 0
0.095738 -0.261529 -0.042954 127 127 0
-0.192107 0.041521 -0.079792 127 127 0
-0.024598 0.709848 0.507393 153 76 0
0.039621 0.667166 0.626579 153 76 0
-0.217875 -0.020141 0.002248 127 127 0
-0.031303 0.653183 0.713875 153 76 0
0.116749 -0.275298 -0.088517 255 0 0
-0.141924 -0.233266 -0.151494 0 255 0
-0.052102 -0.277731 -0.151172 0 255 0
-0.138766 -0.278468 -0.101731 0 255 0
-0.094778 -0.129973 -0.088991 0 255 0
0.051873 -0.290652 0.007717 255 0 0
0.040179 0.655878 0.315991 153 76 0
0.036212 0.111273 -0.112965 153 76 0
0.007269 0.001932 -0.132978 153 76 0
-0.027830 0.661605 0.483859 153 76 0
0.066556 -0.277598 -0.079007 127 127 0
0.008430 -0.344647 -0.210060 255 0 0
0.163315 -0.153236 -0.086675 127 127 0
0.039766 0.076753 -0.092623 153 76 0
0.012319 -0.405118 0.014089 255 0 0
0.115869 -0.203645 -0.188840 127 127 0
0.072651 -0.200254 -0.164968 127 127 0
-0.200151 -0.071822 -0.057214 127 127 0
-0.095367 -0.377350 -0.155396 255 0 0
0.096029 -0.393738 -0.081292 127 127 0
0.038962 0.691953 0.511729 153 76 0
-0.033536 0.357722 -0.050954 153 76 0
0.032799 -0.337764 -0.044417 127 127 0
-0.076689 -0.130658 -0.050613 255 0 0
0.079659 -0.342753 -0.010647 255 0 0
0.054144 -0.378562 -0.157895 127 127 0
-0.157680 -0.199466 -0.040310 0 255 0
-0.064590 -0.131363 -0.013573 255 0 0
0.077242 -0.138616 -0.009168 255 0 0
0.001742 0.571130 0.081408 153 76 0
0.163189 -0.207944 -0.183899 127 127 0
-0.238947 -0.113008 -0.065313 127 127 0
-0.056078 -0.243568 -0.139512 0 255 0
-0.232284 -0.044044 -0.142078 127 127 0
0.039965 0.627800 0.223675 153 76 0
0.034019 0.655166 0.582834 153 76 0
-0.102479 -0.212028 -0.120472 0 255 0
-0.024407 0.233591 -0.112277 153 76 0
0.169328 -0.115680 -0.147069 0 255 0
-0.100058 -0.407397 -0.099981 255 0 0
0.037439 0.638389 0.682874 153 76 0
