ply
format ascii 1.0
element vertex 1266
property float x
property float y
property float z
property uchar red
property uchar green
property uchar blue
end_header
0.001960 0.575271 0.087891 153 76 0
-0.033314 0.645500 0.264441 153 76 0
0.003243 0.625720 0.636985 153 76 0
0.030092 -0.059422 -0.120443 153 76 0
-0.104493 -0.214506 -0.151104 0 255 0
-0.050051 -0.278179 -0.060064 0 255 0
-0.024764 -0.210385 -0.205955 255 0 0
0.006913 -0.231429 -0.209051 255 0 0
0.091499 -0.142359 -0.084438 127 127 0
0.094954 -0.348727 -0.045530 127 127 0
-0.063105 -0.354911 -0.136008 0 255 0
-0.207914 -0.103696 -0.029919 127 127 0
0.138443 -0.333876 -0.146403 127 127 0
-0.108054 -0.384650 -0.117999 0 255 0
0.026746 0.392984 -0.053176 153 76 0
-0.023919 0.458426 -0.008833 153 76 0
-0.088156 -0.286558 -0.016423 0 255 0
0.065186 -0.140529 -0.190161 255 0 0
-0.029383 0.461993 0.050941 153 76 0
0.029261 0.072397 -0.121526 153 76 0
-0.174423 -0.276118 -0.085209 0 255 0
-0.148955 -0.181560 -0.125643 0 255 0
-0.088849 -0.319767 -0.131310 0 255 0
-0.042608 -0.237851 -0.119941 0 255 0
-0.031736 -0.384748 -0.203593 255 0 0
0.219147 -0.084658 -0.122372 0 255 0
-0.058396 -0.267039 -0.117973 0 255 0
-0.034079 0.281522 -0.073433 153 76 0
0.048838 -0.108647 -0.136358 153 76 0
-0.028040 -0.089223 -0.075818 153 76 0
0.246853 -0.078585 -0.086391 0 255 0
0.167051 -0.097286 -0.156425 0 255 0
0.108225 -0.156215 -0.055347 255 0 0
0.018140 -0.094061 -0.062452 153 76 0
-0.018367 0.663259 0.244490 153 76 0
0.201894 -0.190898 -0.080637 127 127 0
-0.063048 -0.215305 -0.187453 255 0 0
-0.019180 0.558144 0.173073 153 76 0
-0.144409 -0.212124 -0.012266 0 255 0
0.036354 0.192333 -0.080120 153 76 0
0.076459 -0.216083 -0.060492 127 127 0
0.222265 -0.105337 -0.143333 0 255 0
0.010486 0.633343 0.366171 153 76 0
0.178282 -0.264461 -0.134673 127 127 0
-0.256605 -0.005877 0.005793 127 127 0
0.039361 0.678202 0.445364 153 76 0
-0.119695 -0.318453 -0.143093 0 255 0
-0.027369 0.605390 0.154576 153 76 0
0.133564 -0.105669 -0.144575 0 255 0
-0.174993 0.012201 -0.057427 127 127 0
-0.245140 0.022464 -0.065565 127 127 0
-0.029293 -0.405788 0.007860 255 0 0
-0.157425 -0.041513 -0.064713 127 127 0
-0.028820 0.698564 0.551717 153 76 0
0.035073 0.181413 -0.113694 153 76 0
-0.134096 -0.252251 -0.123263 0 255 0
0.034552 0.394677 -0.041479 153 76 0
-0.021324 -0.097157 -0.123425 153 76 0
0.089436 -0.219416 -0.023276 255 0 0
0.035658 0.246643 -0.098859 153 76 0
-0.167326 -0.147097 -0.143372 0 255 0
0.144281 -0.275804 -0.058527 127 127 0
-0.110668 -0.307640 -0.098146 255 0 0
-0.033097 -0.098162 -0.054179 153 76 0
-0.184681 -0.113169 -0.102007 127 127 0
0.038554 0.577077 0.768425 76 0 153
-0.258934 -0.059130 -0.132970 127 127 0
0.092609 -0.136190 -0.027412 255 0 0
-0.209601 0.033860 -0.029254 127 127 0
-0.122606 -0.208076 -0.011988 0 255 0
-0.027078 0.622480 0.751304 153 76 0
-0.025999 0.360758 -0.013856 153 76 0
-0.296376 -0.006788 -0.073608 127 127 0
0.006492 0.612882 0.728568 76 0 153
-0.019294 0.663056 0.730806 153 76 0
-0.096181 -0.394056 -0.151598 255 0 0
0.152147 -0.294454 -0.073357 127 127 0
-0.051471 -0.405788 -0.107359 255 0 0
0.103924 -0.182755 -0.181750 127 127 0
0.111861 -0.386143 -0.064125 127 127 0
-0.026115 -0.162060 -0.205777 255 0 0
0.101828 -0.232578 -0.185899 127 127 0
0.089362 -0.246350 -0.046183 127 127 0
0.177429 -0.091393 -0.086851 0 255 0
0.005320 0.494079 0.104818 153 76 0
-0.084794 -0.358789 -0.061092 0 255 0
0.066321 -0.329238 -0.189291 255 0 0
0.027738 0.632975 0.752326 153 76 0
-0.027048 0.625560 0.188304 153 76 0
-0.129304 -0.342706 -0.116753 0 255 0
0.218086 -0.009914 -0.200867 0 255 0
-0.095082 -0.132942 -0.056746 255 0 0
-0.032183 0.575668 0.128738 153 76 0
-0.159688 -0.231855 -0.143156 0 255 0
0.053389 -0.271559 0.005422 255 0 0
0.108485 -0.202193 -0.055973 255 0 0
0.015122 -0.405788 -0.092434 255 0 0
-0.030160 0.481544 0.022751 153 76 0
0.012878 0.163705 -0.060273 153 76 0
-0.018762 0.643461 0.383324 153 76 0
0.122412 -0.197295 -0.074687 127 127 0
0.168016 -0.061996 -0.079792 0 255 0
0.110275 -0.241949 -0.060295 255 0 0
0.039312 0.675657 0.553349 153 76 0
0.116456 -0.169800 -0.094320 255 0 0
0.010858 -0.026701 -0.087146 153 76 0
-0.026135 -0.314160 -0.115418 0 255 0
0.109416 -0.375827 -0.155015 127 127 0
0.117226 -0.262894 -0.072079 255 0 0
-0.046639 -0.227371 -0.114853 0 255 0
-0.096745 -0.308250 -0.041313 255 0 0
0.044939 -0.372818 -0.156781 127 127 0
0.056585 -0.405788 -0.142995 255 0 0
-0.108525 -0.365927 -0.114424 255 0 0
-0.050966 -0.331030 -0.195627 255 0 0
0.035106 0.681374 0.333387 153 76 0
0.003921 0.020655 -0.058958 153 76 0
-0.033417 0.591991 0.183624 153 76 0
0.000849 0.592743 0.247035 153 76 0
0.008907 0.632975 0.737735 76 0 153
-0.123563 -0.125875 -0.091311 0 255 0
0.088394 -0.154675 -0.021918 255 0 0
-0.093707 -0.348091 -0.029862 255 0 0
0.023609 0.598357 0.243854 153 76 0
0.206080 -0.115392 -0.139992 0 255 0
0.019925 0.211658 -0.124160 153 76 0
0.106336 -0.225491 -0.073436 127 127 0
0.020606 0.344527 -0.010969 153 76 0
0.116255 -0.126491 -0.085735 127 127 0
-0.142832 -0.163674 -0.123421 0 255 0
-0.033891 0.648390 0.686833 153 76 0
-0.210365 -0.119917 -0.094777 127 127 0
0.009468 0.372394 0.009435 153 76 0
0.159288 -0.234753 -0.095324 127 127 0
0.107633 -0.132942 -0.070852 127 127 0
-0.234343 -0.085464 -0.123429 127 127 0
0.096942 -0.360911 -0.033058 255 0 0
-0.212973 -0.045532 -0.142260 127 127 0
-0.032783 -0.326633 -0.156754 0 255 0
-0.168944 0.000909 -0.083499 127 127 0
-0.208448 -0.117325 -0.047056 127 127 0
-0.044171 -0.273661 -0.102958 0 255 0
-0.010678 0.619954 0.668520 153 76 0
-0.191850 0.002800 -0.119281 127 127 0
0.067322 -0.394941 -0.188523 255 0 0
0.178073 -0.065044 -0.084662 0 255 0
0.002107 0.232322 -0.047426 153 76 0
-0.072973 -0.169046 -0.086338 0 255 0
0.184617 0.039487 -0.112100 0 255 0
-0.017624 0.708346 0.568360 153 76 0
-0.277474 -0.081093 -0.106343 127 127 0
0.151097 -0.006632 -0.101965 0 255 0
0.013349 0.107825 -0.131081 153 76 0
-0.079991 -0.372144 -0.055824 0 255 0
-0.177862 -0.203415 -0.105983 0 255 0
-0.033951 0.659274 0.321562 153 76 0
-0.294178 -0.012797 -0.053314 127 127 0
-0.004182 0.664192 0.229935 153 76 0
-0.016797 0.699390 0.354283 153 76 0
-0.020552 0.592803 0.739123 76 0 153
-0.024189 0.243560 -0.108357 153 76 0
0.086349 -0.377657 -0.019254 255 0 0
-0.102947 -0.291958 -0.056287 255 0 0
-0.029974 0.691452 0.594335 153 76 0
-0.166648 -0.141427 -0.071522 127 127 0
0.209938 -0.119090 -0.151241 0 255 0
-0.011639 0.599212 0.255156 153 76 0
0.092813 -0.202606 -0.163871 255 0 0
-0.007012 -0.132942 -0.194707 255 0 0
0.018551 0.365779 -0.073067 153 76 0
-0.109289 -0.231464 -0.108619 255 0 0
-0.134600 -0.291651 -0.099491 0 255 0
-0.109650 -0.197599 -0.015693 0 255 0
-0.009368 0.578828 0.219049 153 76 0
0.016208 -0.080178 -0.137877 153 76 0
-0.239139 0.024014 -0.125132 127 127 0
0.028817 0.356168 -0.012460 153 76 0
0.203758 -0.202119 -0.147424 127 127 0
-0.033539 -0.235747 0.011297 255 0 0
0.021032 -0.314152 -0.061257 127 127 0
0.114779 -0.322378 -0.081583 255 0 0
-0.089807 -0.376908 -0.067445 0 255 0
0.109593 -0.263412 -0.044010 127 127 0
-0.184216 -0.082164 -0.115678 127 127 0
0.003605 0.644051 0.434669 153 76 0
-0.121454 -0.243653 -0.039148 0 255 0
0.039387 0.660026 0.639814 153 76 0
-0.059913 -0.146939 -0.001690 255 0 0
0.015493 -0.351621 -0.050143 127 127 0
0.090190 -0.206244 -0.090214 127 127 0
0.100509 -0.396607 -0.116415 127 127 0
-0.004299 0.569552 0.789000 76 0 153
0.153684 -0.319119 -0.124151 127 127 0
-0.192341 -0.167541 -0.060362 0 255 0
0.037703 0.343392 -0.034001 153 76 0
-0.035964 -0.280030 -0.036111 0 255 0
0.098086 -0.301608 -0.156999 127 127 0
-0.041954 -0.280545 -0.145504 0 255 0
-0.033774 0.650286 0.676631 153 76 0
-0.010836 0.626600 0.793013 76 0 153
0.107852 -0.332462 -0.173705 127 127 0
0.022233 0.695790 0.336471 153 76 0
0.028722 0.700466 0.601757 153 76 0
0.007006 0.646200 0.468928 153 76 0
-0.020352 0.264532 -0.106648 153 76 0
0.019503 -0.090255 -0.128532 153 76 0
0.039431 0.672653 0.588771 153 76 0
0.032094 -0.307719 -0.109801 127 127 0
0.218585 -0.110721 -0.129419 0 255 0
0.036900 0.682127 0.622132 153 76 0
0.038076 0.516222 0.060612 153 76 0
0.041503 -0.405788 -0.039985 255 0 0
-0.106312 -0.404231 -0.127140 255 0 0
-0.019233 -0.276918 -0.120621 0 255 0
0.069216 -0.289130 -0.152886 127 127 0
-0.222528 0.023597 -0.002416 127 127 0
-0.164634 -0.036137 -0.034066 127 127 0
0.022339 -0.058453 -0.071794 153 76 0
0.098514 -0.258039 -0.035107 255 0 0
0.174445 -0.134005 -0.132377 0 255 0
-0.108391 -0.150205 -0.027826 0 255 0
0.036503 -0.279491 0.012417 255 0 0
-0.262286 -0.095785 -0.039778 127 127 0
0.036467 -0.300555 -0.102742 127 127 0
0.281519 -0.004673 -0.085739 0 255 0
0.070039 -0.303828 -0.186437 255 0 0
0.150628 -0.255845 -0.174646 127 127 0
0.027197 0.706394 0.404761 153 76 0
0.052694 -0.132942 -0.003505 255 0 0
-0.165717 -0.190363 -0.038878 0 255 0
0.136251 -0.294174 -0.057859 127 127 0
0.212845 -0.113733 -0.119402 0 255 0
0.056204 -0.306383 0.004256 255 0 0
0.144211 -0.060899 -0.129155 0 255 0
-0.030687 0.660880 0.394161 153 76 0
0.006082 0.663702 0.227291 153 76 0
-0.054537 -0.101843 -0.097431 153 76 0
0.177682 -0.120283 -0.079292 0 255 0
-0.191267 -0.117450 -0.046487 127 127 0
-0.178334 -0.265436 -0.067290 0 255 0
0.239286 -0.086524 -0.165218 0 255 0
0.062044 -0.222329 0.001024 255 0 0
0.201605 0.027300 -0.180588 0 255 0
0.017130 0.381095 0.012161 153 76 0
-0.169601 -0.112290 -0.055640 127 127 0
0.108654 -0.262892 -0.135167 255 0 0
-0.036693 -0.262658 -0.044153 0 255 0
-0.090479 -0.275104 -0.157824 0 255 0
0.194004 -0.126774 -0.085999 0 255 0
-0.026410 0.661865 0.510312 153 76 0
0.011524 0.499751 0.110435 153 76 0
0.218709 -0.032262 -0.199560 0 255 0
0.113286 -0.347129 -0.121309 127 127 0
-0.063310 -0.217494 -0.039977 0 255 0
-0.011931 -0.338581 -0.108719 127 127 0
-0.188861 -0.013683 -0.013443 127 127 0
-0.154951 -0.271229 -0.132845 0 255 0
0.161494 -0.152524 -0.162517 127 127 0
0.057272 -0.327396 -0.152922 127 127 0
-0.181658 -0.150029 -0.120440 127 127 0
-0.024373 -0.301483 -0.143339 0 255 0
0.144455 -0.336433 -0.129931 127 127 0
-0.068387 -0.125402 -0.090353 153 76 0
-0.168500 -0.033738 -0.109759 127 127 0
0.035043 0.676802 0.658236 153 76 0
0.153966 -0.239168 -0.055448 127 127 0
-0.154343 -0.257665 -0.096165 0 255 0
0.025741 0.566778 0.779527 76 0 153
-0.016309 -0.405788 -0.020129 255 0 0
-0.015181 0.574250 0.783838 76 0 153
0.004993 0.582801 0.229957 153 76 0
-0.108353 -0.364292 -0.075816 255 0 0
-0.044976 -0.137338 -0.198108 255 0 0
0.144945 -0.338956 -0.118060 127 127 0
0.066887 -0.263548 -0.177265 127 127 0
-0.159447 -0.073914 -0.074519 127 127 0
-0.002191 0.301215 -0.025148 153 76 0
-0.009820 0.018946 -0.130195 153 76 0
0.086699 -0.348951 -0.148948 127 127 0
0.177045 -0.140444 -0.080292 127 127 0
-0.030031 0.380655 -0.008619 153 76 0
-0.049323 -0.132942 -0.000909 255 0 0
0.026739 0.655870 0.490949 153 76 0
0.022412 0.601588 0.254362 153 76 0
0.225057 0.023379 -0.157081 0 255 0
-0.110977 -0.213672 -0.126088 255 0 0
-0.040127 -0.263907 -0.136484 0 255 0
0.199932 -0.166169 -0.088410 127 127 0
-0.043284 -0.405788 -0.082536 255 0 0
0.010226 0.349740 -0.004731 153 76 0
0.192522 -0.173514 -0.108262 127 127 0
-0.026255 -0.387985 0.014210 255 0 0
0.010213 0.042791 -0.059787 153 76 0
-0.120539 -0.122011 -0.120242 0 255 0
0.112782 -0.146886 -0.125136 127 127 0
-0.029796 0.645387 0.640626 153 76 0
-0.293041 -0.072911 -0.067590 127 127 0
0.238912 0.020017 -0.104768 0 255 0
0.166456 -0.042329 -0.184947 0 255 0
0.004180 -0.204824 0.017862 255 0 0
-0.143870 -0.136970 -0.098551 0 255 0
0.093315 -0.341347 -0.176968 127 127 0
0.161858 -0.234704 -0.175067 127 127 0
0.038582 0.374131 -0.043044 153 76 0
0.164422 -0.069579 -0.161288 0 255 0
-0.168971 -0.057060 -0.105297 127 127 0
-0.101519 -0.255877 -0.039619 0 255 0
0.138459 -0.328042 -0.073853 127 127 0
0.046983 -0.218158 -0.100159 127 127 0
0.113994 -0.361560 -0.115927 255 0 0
-0.059117 -0.118109 -0.121071 153 76 0
0.034424 0.045672 -0.114798 153 76 0
-0.028068 -0.315142 -0.030495 0 255 0
0.027803 -0.032060 -0.122802 153 76 0
0.144714 -0.230250 -0.184115 127 127 0
0.142545 -0.012357 -0.125311 0 255 0
0.069264 -0.293849 -0.187032 255 0 0
-0.149129 -0.318516 -0.094921 0 255 0
-0.302854 -0.030148 -0.025624 127 127 0
-0.155963 -0.141177 -0.135410 0 255 0
-0.237050 0.002143 0.004996 127 127 0
0.157359 -0.203385 -0.185764 127 127 0
-0.034512 -0.355828 -0.202443 255 0 0
0.140438 -0.201308 -0.047982 127 127 0
0.157291 -0.052573 -0.169720 0 255 0
0.132769 -0.291722 -0.092682 127 127 0
0.114550 -0.348540 -0.079846 255 0 0
0.043432 -0.405788 -0.154470 255 0 0
-0.164795 -0.139673 -0.031481 127 127 0
-0.076250 -0.225318 -0.060749 0 255 0
-0.016085 0.190869 -0.127445 153 76 0
-0.029857 0.408262 0.009330 153 76 0
0.103078 -0.201288 -0.042921 255 0 0
-0.030632 -0.068819 -0.080815 153 76 0
0.052322 -0.405788 -0.005110 255 0 0
0.098885 -0.164166 -0.035591 255 0 0
0.129861 -0.158275 -0.080522 127 127 0
-0.112420 -0.237225 -0.013299 0 255 0
0.093806 -0.199835 -0.179840 127 127 0
0.029021 0.451208 -0.014269 153 76 0
0.001775 0.604685 0.789800 76 0 153
0.039781 0.661269 0.325002 153 76 0
0.187260 -0.247944 -0.128759 127 127 0
0.065939 -0.259149 -0.001965 255 0 0
0.082064 -0.201800 -0.118560 127 127 0
0.214840 -0.051122 -0.057561 0 255 0
0.182619 -0.197330 -0.125462 127 127 0
-0.022771 0.580265 0.110196 153 76 0
0.176517 0.004477 -0.182665 0 255 0
-0.076085 -0.251542 -0.151323 0 255 0
-0.108132 -0.251891 -0.074140 255 0 0
-0.058063 -0.305917 -0.158614 0 255 0
0.018915 -0.352469 -0.168601 127 127 0
0.026805 0.036269 -0.123568 153 76 0
0.120876 -0.140821 -0.059240 127 127 0
-0.270073 -0.080914 -0.025102 127 127 0
0.009622 -0.132942 -0.198500 255 0 0
0.028161 -0.401629 -0.206254 255 0 0
-0.071595 -0.229097 -0.141830 0 255 0
-0.027261 0.620373 0.765334 76 0 153
0.018607 -0.132942 -0.019709 255 0 0
-0.189590 -0.188744 -0.021171 0 255 0
-0.009963 0.456529 0.067977 153 76 0
0.111141 -0.183352 -0.062386 255 0 0
0.027473 -0.405788 -0.055060 255 0 0
0.209147 -0.139536 -0.134457 0 255 0
0.038708 0.646469 0.716671 153 76 0
-0.144899 -0.254023 -0.021994 0 255 0
0.045954 -0.405788 -0.073143 255 0 0
0.104311 -0.403623 -0.145653 255 0 0
0.174227 -0.263667 -0.087811 127 127 0
0.050497 -0.125225 -0.148962 255 0 0
0.077349 -0.150767 -0.115588 127 127 0
0.008343 0.619443 0.148099 153 76 0
-0.056714 -0.356623 -0.192314 255 0 0
0.052049 -0.314328 -0.148655 127 127 0
-0.003255 0.639254 0.586833 153 76 0
0.011181 0.596951 0.115820 153 76 0
-0.142593 -0.331687 -0.089236 0 255 0
0.120207 -0.329059 -0.118992 127 127 0
-0.071791 -0.405788 -0.070881 255 0 0
-0.314176 -0.034471 -0.057944 127 127 0
0.172928 -0.130954 -0.078681 0 255 0
0.006733 -0.007271 -0.086408 153 76 0
-0.033853 -0.244031 -0.108967 0 255 0
0.038682 0.613328 0.749013 76 0 153
0.189099 0.036075 -0.133399 0 255 0
0.032108 -0.062511 -0.079303 153 76 0
-0.044580 -0.112151 -0.137996 153 76 0
0.014253 0.674763 0.260353 153 76 0
-0.015175 0.713304 0.539064 153 76 0
0.166032 0.036594 -0.137271 0 255 0
-0.095710 -0.132942 -0.116746 0 255 0
-0.100209 -0.273897 -0.131908 0 255 0
0.082031 -0.192289 -0.065868 127 127 0
0.033934 0.662340 0.456253 153 76 0
0.052197 -0.192070 0.005916 255 0 0
-0.217184 -0.182054 -0.056465 0 255 0
-0.185394 -0.224605 -0.125214 0 255 0
-0.076040 -0.223973 -0.026618 0 255 0
0.104664 -0.131700 -0.166759 127 127 0
-0.126240 -0.267466 -0.019162 0 255 0
-0.027348 0.601567 0.230733 153 76 0
0.049861 -0.272622 -0.122087 127 127 0
0.059467 -0.303085 -0.150817 127 127 0
-0.030066 0.425461 0.019606 153 76 0
-0.043830 -0.249077 -0.198583 255 0 0
0.177095 -0.174769 -0.154195 127 127 0
0.188951 0.038764 -0.090328 0 255 0
0.038779 0.676250 0.495279 153 76 0
-0.007889 -0.096553 -0.148730 153 76 0
-0.067795 -0.376852 -0.007738 255 0 0
0.014396 0.533631 0.043696 153 76 0
-0.085070 -0.271370 -0.024972 255 0 0
0.089619 -0.186732 -0.062763 127 127 0
-0.063647 -0.245666 -0.064171 0 255 0
-0.031596 0.667845 0.542257 153 76 0
0.072267 -0.242018 -0.089261 127 127 0
0.017476 -0.405788 -0.128833 255 0 0
-0.014198 -0.405788 -0.170558 255 0 0
-0.072686 -0.346321 -0.022674 0 255 0
0.057318 -0.296259 -0.046167 127 127 0
-0.019795 0.689624 0.652503 153 76 0
0.272735 -0.000991 -0.093420 0 255 0
-0.175706 -0.152226 -0.138893 0 255 0
0.073236 -0.296255 -0.042332 127 127 0
-0.035896 -0.154065 -0.201869 255 0 0
-0.025656 0.606613 0.728529 76 0 153
-0.147176 -0.153035 -0.034530 0 255 0
0.036554 0.696750 0.526260 153 76 0
0.024222 0.654145 0.751644 153 76 0
-0.080742 -0.347636 -0.129440 0 255 0
0.114380 -0.271097 -0.184110 127 127 0
-0.030587 0.577389 0.743944 76 0 153
0.032156 0.520911 0.114391 153 76 0
-0.027718 0.283493 -0.050043 153 76 0
-0.068516 -0.309800 -0.018952 0 255 0
-0.016532 -0.040719 -0.127102 153 76 0
0.035290 0.651118 0.360544 153 76 0
-0.078364 -0.296206 -0.017684 0 255 0
0.005417 -0.314470 -0.067374 127 127 0
0.047391 -0.240343 -0.153187 127 127 0
0.181319 -0.160818 -0.144965 127 127 0
0.146067 -0.011844 -0.149233 0 255 0
-0.073714 -0.212439 -0.135681 0 255 0
-0.094917 -0.405788 -0.125616 255 0 0
-0.232177 0.031972 -0.093842 127 127 0
0.144410 -0.086934 -0.148757 0 255 0
0.106453 -0.132942 -0.091853 255 0 0
0.179124 -0.178547 -0.090408 127 127 0
0.037596 0.470864 0.019015 153 76 0
-0.075393 -0.235086 -0.114132 0 255 0
0.124185 -0.169910 -0.051201 127 127 0
0.105778 -0.289712 -0.049438 255 0 0
-0.033041 -0.315716 -0.203052 255 0 0
-0.010333 0.642896 0.571608 153 76 0
0.104385 -0.164826 -0.177820 127 127 0
-0.098168 -0.289992 -0.017842 0 255 0
0.029935 0.627234 0.773707 153 76 0
-0.111731 -0.177239 -0.143438 0 255 0
0.095608 -0.396388 -0.150885 127 127 0
0.006147 0.647149 0.490323 153 76 0
-0.011017 0.372591 0.007003 153 76 0
-0.014683 -0.334471 -0.059568 0 255 0
0.170587 -0.101803 -0.168234 0 255 0
-0.072548 -0.336709 -0.135033 0 255 0
0.170501 -0.219664 -0.104973 127 127 0
-0.033732 0.306461 -0.065634 153 76 0
-0.006117 -0.173419 0.016861 255 0 0
-0.024877 -0.268056 -0.056450 0 255 0
-0.218358 0.007342 -0.132595 127 127 0
0.047330 -0.284810 -0.094115 127 127 0
0.176099 -0.063571 -0.181346 0 255 0
0.172850 -0.086328 -0.166570 0 255 0
-0.031557 0.453265 0.002812 153 76 0
0.168635 -0.281128 -0.137674 127 127 0
0.062585 -0.122177 -0.059689 255 0 0
-0.025158 0.687505 0.333980 153 76 0
-0.021557 0.518143 0.039894 153 76 0
0.126870 -0.368945 -0.132998 127 127 0
0.107688 -0.398547 -0.137499 127 127 0
-0.010139 0.272653 -0.039549 153 76 0
0.079517 -0.315962 -0.182883 127 127 0
0.250889 -0.019896 -0.194391 0 255 0
0.174329 -0.204542 -0.139735 127 127 0
0.149916 -0.078990 -0.151299 0 255 0
0.037822 0.620231 0.198947 153 76 0
-0.024822 -0.405788 -0.093969 255 0 0
-0.038106 -0.360750 0.009405 255 0 0
-0.140635 -0.176377 -0.124854 0 255 0
-0.009685 0.515545 0.127545 153 76 0
0.005764 0.638861 0.395159 153 76 0
0.217595 -0.086259 -0.160472 0 255 0
0.084447 -0.309157 -0.067278 127 127 0
-0.028994 0.342883 -0.067158 153 76 0
-0.159950 -0.149599 -0.052149 0 255 0
0.076647 -0.405788 -0.054595 255 0 0
-0.262462 0.012757 -0.068441 127 127 0
0.096681 -0.159809 -0.068321 127 127 0
-0.053835 -0.308964 -0.194439 255 0 0
0.033403 0.616987 0.761727 76 0 153
0.062120 -0.342231 0.000966 255 0 0
-0.017713 0.700751 0.618229 153 76 0
-0.200098 -0.180137 -0.074171 0 255 0
-0.206567 -0.005475 -0.004098 127 127 0
-0.209371 -0.127566 -0.079129 127 127 0
-0.079627 -0.132942 -0.098456 255 0 0
0.039553 0.491917 0.050951 153 76 0
0.188477 -0.074067 -0.170550 0 255 0
-0.016986 -0.057499 -0.072761 153 76 0
-0.251257 0.017236 -0.042156 127 127 0
-0.110167 -0.229930 -0.089595 255 0 0
-0.229453 -0.092533 -0.108852 127 127 0
-0.001464 0.712851 0.581356 153 76 0
-0.011016 0.659797 0.224416 153 76 0
-0.033512 0.668251 0.335040 153 76 0
-0.016619 -0.405788 -0.116954 255 0 0
-0.176626 -0.174201 -0.038259 0 255 0
-0.135604 -0.173394 -0.010314 0 255 0
-0.025145 0.229438 -0.061682 153 76 0
0.161570 -0.025543 -0.075456 0 255 0
-0.001289 0.502140 0.114289 153 76 0
0.013356 -0.290149 -0.093431 127 127 0
0.038913 0.686885 0.545784 153 76 0
-0.136426 -0.336983 -0.108534 0 255 0
0.099651 -0.189362 -0.146770 127 127 0
0.006092 -0.405788 -0.182229 255 0 0
0.142707 -0.039143 -0.111722 0 255 0
0.158091 -0.285900 -0.153068 127 127 0
0.191104 -0.161102 -0.073629 127 127 0
-0.106482 -0.311731 -0.064819 255 0 0
0.037381 0.606492 0.222289 153 76 0
0.102079 -0.405788 -0.106423 255 0 0
-0.242561 -0.048727 0.001581 127 127 0
0.107223 -0.253061 -0.043705 127 127 0
-0.235528 -0.101073 -0.099493 127 127 0
-0.119277 -0.127829 -0.031532 0 255 0
0.058178 -0.106083 -0.073501 153 76 0
0.206865 -0.208509 -0.114775 127 127 0
-0.262443 0.008839 -0.138195 127 127 0
0.030501 0.703501 0.554342 153 76 0
0.245841 0.005546 -0.194797 0 255 0
0.088641 -0.329516 -0.152769 127 127 0
-0.092446 -0.264772 -0.034584 255 0 0
-0.179134 -0.211664 -0.024631 0 255 0
0.226494 -0.053162 -0.195563 0 255 0
0.055959 -0.364785 -0.179970 127 127 0
-0.123259 -0.270975 -0.151910 0 255 0
-0.135358 -0.307361 -0.134280 0 255 0
0.159483 -0.138131 -0.116038 0 255 0
0.131640 -0.248101 -0.075843 127 127 0
0.019838 0.572001 0.791631 76 0 153
0.266133 0.002997 -0.079106 0 255 0
0.086686 -0.192652 -0.121020 127 127 0
0.017570 -0.161692 -0.207648 255 0 0
-0.286279 -0.005284 -0.093873 127 127 0
-0.190022 -0.098712 -0.034052 127 127 0
-0.109150 -0.162240 -0.109676 255 0 0
-0.082148 -0.368651 -0.170384 255 0 0
0.190246 -0.151331 -0.090032 0 255 0
-0.127537 -0.283549 -0.116889 0 255 0
0.039363 0.016985 -0.092511 153 76 0
-0.135567 -0.221908 -0.012663 0 255 0
0.039004 0.001278 -0.101769 153 76 0
0.036159 0.660638 0.395281 153 76 0
0.036086 0.665714 0.535660 153 76 0
0.059197 -0.188231 -0.119514 127 127 0
0.029303 -0.102627 -0.121472 153 76 0
0.021491 0.551054 0.783907 76 0 153
0.145829 -0.144022 -0.144369 127 127 0
0.173379 -0.167183 -0.159688 127 127 0
0.009634 -0.263482 0.017144 255 0 0
0.114224 -0.234638 -0.077365 255 0 0
0.008893 -0.396132 0.017242 255 0 0
0.200913 -0.170331 -0.149231 127 127 0
-0.105827 -0.232124 -0.039088 0 255 0
0.116194 -0.329938 -0.129684 127 127 0
-0.026919 -0.259392 -0.061705 0 255 0
-0.025013 -0.240055 -0.205922 255 0 0
-0.172124 -0.154573 -0.079234 0 255 0
0.115782 -0.330475 -0.053335 127 127 0
-0.199447 -0.216561 -0.048030 0 255 0
0.115296 -0.151603 -0.085512 255 0 0
0.115404 -0.293800 -0.105219 255 0 0
0.062166 -0.316473 -0.041270 127 127 0
-0.020477 0.610030 0.708478 153 76 0
-0.066903 -0.227762 -0.031579 0 255 0
0.023985 0.643798 0.597641 153 76 0
-0.106075 -0.170786 -0.127712 255 0 0
0.012247 -0.345240 0.016800 255 0 0
0.163533 -0.192401 -0.082374 127 127 0
-0.019319 0.163549 -0.124964 153 76 0
-0.167314 -0.050732 -0.034885 127 127 0
0.037017 -0.299171 -0.055582 127 127 0
-0.084974 -0.326705 -0.166702 255 0 0
-0.056291 -0.246971 -0.085709 0 255 0
0.069448 -0.405788 -0.144500 255 0 0
0.058322 -0.263358 -0.093489 127 127 0
-0.030156 0.630382 0.206769 153 76 0
-0.007447 0.082676 -0.060371 153 76 0
-0.011967 0.140939 -0.062243 153 76 0
-0.033115 0.460159 0.015103 153 76 0
0.040296 -0.357811 -0.066686 127 127 0
0.008586 0.638762 0.181263 153 76 0
-0.098188 -0.351899 -0.073943 0 255 0
-0.179441 0.020972 -0.060088 127 127 0
0.163401 -0.150746 -0.077454 127 127 0
-0.025835 0.702625 0.410738 153 76 0
0.010029 0.485969 0.000091 153 76 0
0.150935 -0.189082 -0.076124 127 127 0
-0.136122 -0.267052 -0.022496 0 255 0
0.056810 -0.405788 -0.122406 255 0 0
-0.029837 0.637479 0.669629 153 76 0
0.107453 -0.293990 -0.182292 127 127 0
0.171601 0.037261 -0.105141 0 255 0
0.033089 -0.044142 -0.075012 153 76 0
-0.165008 -0.192973 -0.120630 0 255 0
-0.042513 -0.296888 -0.152014 0 255 0
-0.124765 -0.347818 -0.058758 0 255 0
-0.147460 -0.145563 -0.146548 0 255 0
0.111803 -0.313554 -0.127564 255 0 0
-0.092859 -0.212489 -0.156425 255 0 0
0.083374 -0.141496 -0.103363 127 127 0
0.168982 -0.287576 -0.122951 127 127 0
0.090099 -0.282974 -0.068604 127 127 0
-0.032681 0.693093 0.477272 153 76 0
0.090596 -0.124893 -0.109179 127 127 0
-0.033655 0.183267 -0.099347 153 76 0
-0.032950 -0.108188 -0.145112 153 76 0
-0.183649 -0.123648 -0.029663 127 127 0
0.251128 0.014468 -0.101150 0 255 0
-0.033747 -0.029070 -0.098653 153 76 0
0.027899 0.708346 0.442820 153 76 0
-0.087537 -0.372279 -0.112589 0 255 0
0.253240 -0.061464 -0.077092 0 255 0
-0.017762 0.710910 0.425285 153 76 0
0.063678 -0.253460 -0.173232 127 127 0
-0.072610 -0.251690 -0.180116 255 0 0
0.006536 0.076374 -0.059303 153 76 0
-0.097905 -0.354439 -0.105629 0 255 0
-0.004132 0.172932 -0.131816 153 76 0
0.137678 -0.142412 -0.181195 127 127 0
-0.097237 -0.275430 -0.149047 255 0 0
0.167261 0.027551 -0.157117 0 255 0
0.019853 0.686177 0.296325 153 76 0
0.018785 0.364946 0.001140 153 76 0
0.030459 0.681547 0.307709 153 76 0
-0.069608 -0.259169 -0.122440 0 255 0
0.034647 -0.367321 -0.204734 255 0 0
0.038113 0.688906 0.403824 153 76 0
0.038134 0.626130 0.260623 153 76 0
0.020362 -0.304966 -0.067798 127 127 0
-0.027955 0.216437 -0.068702 153 76 0
0.115055 -0.129689 -0.147650 127 127 0
0.183469 -0.158254 -0.086086 127 127 0
-0.033475 0.015580 -0.100713 153 76 0
0.033291 0.597569 0.779513 76 0 153
0.148914 -0.325774 -0.092548 127 127 0
-0.171549 -0.275513 -0.104192 0 255 0
-0.018747 0.549793 0.068253 153 76 0
-0.031330 0.655813 0.271398 153 76 0
0.009604 -0.188340 0.017148 255 0 0
-0.006394 0.056974 -0.060030 153 76 0
0.022874 -0.405788 -0.172536 255 0 0
0.254795 0.002343 -0.177915 0 255 0
0.262732 -0.018051 -0.071919 0 255 0
0.020556 -0.055686 -0.119018 153 76 0
-0.002235 0.357466 0.000241 153 76 0
0.071021 -0.405788 -0.175494 255 0 0
0.023993 -0.277240 -0.083951 127 127 0
-0.178522 -0.054193 -0.020675 127 127 0
0.061992 -0.341464 -0.192613 255 0 0
0.198773 -0.167276 -0.115602 0 255 0
0.005371 0.708416 0.370311 153 76 0
0.115785 -0.151848 -0.182282 127 127 0
-0.187187 -0.157417 -0.037350 0 255 0
0.082324 -0.292186 -0.014538 255 0 0
-0.024673 0.559187 0.745296 76 0 153
0.033927 -0.301719 0.013484 255 0 0
-0.238185 0.016304 -0.013143 127 127 0
-0.288907 -0.004863 -0.119997 127 127 0
-0.097151 -0.244758 -0.129472 0 255 0
0.038972 0.601645 0.752780 76 0 153
0.134465 -0.133432 -0.055975 127 127 0
-0.160484 -0.173857 -0.124140 0 255 0
0.003739 -0.335368 -0.068656 127 127 0
-0.110672 -0.291884 -0.093432 255 0 0
-0.069123 -0.279001 -0.182792 255 0 0
-0.207885 -0.107969 -0.116537 127 127 0
-0.092169 -0.201713 -0.022704 0 255 0
-0.161624 -0.044937 -0.093007 127 127 0
0.056179 -0.380339 -0.195815 255 0 0
-0.111369 -0.150782 -0.078595 0 255 0
0.128254 -0.326311 -0.061091 127 127 0
-0.200058 -0.198412 -0.034394 0 255 0
-0.027340 0.557248 0.156858 153 76 0
-0.120788 -0.213864 -0.037150 0 255 0
0.022454 -0.405788 -0.199101 255 0 0
-0.031067 0.658629 0.703714 153 76 0
-0.100055 -0.227457 -0.015104 0 255 0
-0.029126 -0.328994 0.013125 255 0 0
0.027700 -0.267201 -0.138421 127 127 0
-0.062149 -0.196765 -0.058363 0 255 0
0.151164 -0.028155 -0.087868 0 255 0
-0.090998 -0.341938 -0.154028 0 255 0
-0.189329 -0.166598 -0.049758 0 255 0
-0.029929 0.169754 -0.112432 153 76 0
-0.122243 -0.159279 -0.016345 0 255 0
-0.110715 -0.202644 -0.093762 255 0 0
0.119881 -0.388756 -0.126444 127 127 0
0.269431 -0.016847 -0.185060 0 255 0
0.106743 -0.249530 -0.139781 255 0 0
-0.002767 0.629627 0.349966 153 76 0
0.265521 -0.026330 -0.184090 0 255 0
-0.108830 -0.175218 -0.112108 0 255 0
-0.159079 -0.013357 -0.071384 127 127 0
-0.005899 -0.403809 0.016890 255 0 0
-0.073084 -0.264037 -0.011796 255 0 0
0.202841 -0.131576 -0.151907 0 255 0
0.025787 0.205571 -0.062646 153 76 0
-0.007006 -0.132942 -0.183078 255 0 0
-0.092858 -0.405788 -0.141396 255 0 0
-0.032573 0.605747 0.216895 153 76 0
0.041407 -0.405788 -0.000894 255 0 0
0.035209 0.654459 0.721674 153 76 0
-0.171837 -0.018122 -0.028011 127 127 0
-0.123858 -0.177036 -0.039888 0 255 0
-0.018400 0.653596 0.486507 153 76 0
-0.159178 -0.200104 -0.012230 0 255 0
0.074490 -0.184691 -0.183022 255 0 0
0.038625 0.010685 -0.104642 153 76 0
0.199356 -0.224902 -0.115213 127 127 0
0.178344 -0.065484 -0.123929 0 255 0
-0.013671 0.555507 0.791839 76 0 153
0.132557 -0.240942 -0.157393 127 127 0
0.012322 0.632975 0.784531 76 0 153
-0.039973 -0.311149 -0.054502 0 255 0
0.030881 0.486621 0.080246 153 76 0
-0.064736 -0.264265 -0.150844 0 255 0
0.033991 0.024679 -0.115362 153 76 0
0.163278 -0.246824 -0.169376 127 127 0
0.114742 -0.372773 -0.110247 255 0 0
0.037113 0.505368 0.082597 153 76 0
-0.000743 -0.323829 -0.095640 0 255 0
-0.159577 -0.236555 -0.022948 0 255 0
-0.034077 0.423928 -0.001117 153 76 0
0.156410 -0.055932 -0.137188 0 255 0
0.032392 0.164757 -0.117446 153 76 0
-0.056104 -0.254893 -0.030397 0 255 0
0.009561 -0.004754 -0.059701 153 76 0
-0.101839 -0.229163 -0.152938 0 255 0
0.088906 -0.242113 -0.154776 127 127 0
0.077366 -0.159654 -0.010733 255 0 0
0.035957 -0.068216 -0.111954 153 76 0
0.103871 -0.336581 -0.080069 127 127 0
0.071408 -0.267874 -0.047641 127 127 0
-0.104242 -0.380005 -0.057169 0 255 0
-0.008201 0.490284 0.098756 153 76 0
-0.058044 -0.132942 -0.191110 255 0 0
0.156122 -0.313676 -0.101713 127 127 0
0.005436 0.603293 0.728429 76 0 153
0.035010 -0.254099 -0.141598 127 127 0
-0.078594 -0.238865 -0.016533 0 255 0
-0.028590 -0.132942 -0.011510 255 0 0
-0.004396 -0.119886 -0.163398 255 0 0
-0.212433 -0.177800 -0.077260 0 255 0
0.015617 -0.340165 -0.163003 127 127 0
-0.017310 0.621175 0.676621 153 76 0
-0.005655 -0.119572 -0.028508 153 76 0
-0.033159 0.637137 0.280273 153 76 0
0.020891 -0.405788 -0.151971 255 0 0
-0.046317 -0.405788 -0.129987 255 0 0
0.111126 -0.296932 -0.129199 255 0 0
-0.031119 0.063343 -0.081989 153 76 0
0.012465 0.572470 0.729814 76 0 153
0.054496 -0.239000 -0.196512 255 0 0
-0.024447 0.632975 0.751546 153 76 0
-0.016121 -0.328742 -0.207093 255 0 0
-0.096678 -0.167326 -0.150399 255 0 0
-0.015635 -0.104532 -0.109774 153 76 0
-0.241665 -0.111675 -0.065428 127 127 0
-0.019041 -0.318951 0.015159 255 0 0
0.122197 -0.339533 -0.161867 127 127 0
-0.285742 -0.085192 -0.075298 127 127 0
0.054244 -0.302530 -0.196617 255 0 0
0.168480 0.009113 -0.172189 0 255 0
0.128585 -0.366320 -0.087578 127 127 0
0.038032 0.212695 -0.101426 153 76 0
0.176368 -0.063457 -0.105939 0 255 0
0.278869 -0.008641 -0.171586 0 255 0
-0.201766 -0.072061 -0.085712 127 127 0
0.018714 -0.117646 -0.160895 255 0 0
0.029006 0.415277 0.024713 153 76 0
-0.024130 0.592153 0.127003 153 76 0
-0.092991 -0.340891 -0.057797 0 255 0
-0.273479 -0.027639 -0.132324 127 127 0
0.034626 0.688167 0.360958 153 76 0
-0.050079 -0.356394 0.004446 255 0 0
-0.063746 -0.299230 -0.045202 0 255 0
0.193664 0.031274 -0.176901 0 255 0
-0.031872 0.580135 0.770979 76 0 153
-0.130056 -0.130585 -0.054647 0 255 0
-0.010825 0.629773 0.170221 153 76 0
-0.103676 -0.197185 -0.058045 255 0 0
-0.015814 0.511596 0.118647 153 76 0
0.096426 -0.184378 -0.032387 255 0 0
0.074552 -0.182215 -0.079775 127 127 0
0.151034 -0.237469 -0.147604 127 127 0
0.038264 0.263244 -0.067173 153 76 0
-0.193054 -0.071023 -0.032128 127 127 0
-0.211614 -0.082883 -0.015753 127 127 0
0.000276 0.612350 0.135176 153 76 0
-0.031209 0.540756 0.125289 153 76 0
-0.038699 -0.275570 0.009159 255 0 0
-0.004270 0.407849 0.031776 153 76 0
0.066628 -0.133484 -0.002494 255 0 0
-0.225098 -0.086878 -0.065958 127 127 0
0.002465 0.711634 0.597092 153 76 0
-0.016454 0.648180 0.549457 153 76 0
0.146815 -0.286164 -0.165517 127 127 0
0.062036 -0.328578 -0.039921 127 127 0
0.159765 -0.112425 -0.106049 0 255 0
0.030339 0.523168 0.048499 153 76 0
-0.143605 -0.318544 -0.114032 0 255 0
-0.029065 -0.348583 0.013150 255 0 0
0.068355 -0.151352 -0.003819 255 0 0
-0.023870 -0.132942 -0.193976 255 0 0
0.094571 -0.372041 -0.029969 255 0 0
0.006256 0.540861 0.047897 153 76 0
0.114152 -0.292766 -0.114731 255 0 0
-0.025674 0.602482 0.747714 76 0 153
0.020739 0.121056 -0.063529 153 76 0
-0.033334 0.661572 0.354968 153 76 0
0.028610 0.258153 -0.051754 153 76 0
0.165790 -0.020107 -0.181785 0 255 0
0.038658 0.674298 0.520370 153 76 0
-0.133083 -0.135490 -0.107542 0 255 0
0.102772 -0.170399 -0.149367 255 0 0
-0.041306 -0.132942 -0.017878 255 0 0
-0.191695 -0.178302 -0.051841 0 255 0
-0.017184 0.643427 0.595714 153 76 0
-0.268097 -0.035371 -0.002734 127 127 0
-0.064186 -0.237741 -0.071721 0 255 0
-0.104621 -0.310957 -0.131221 255 0 0
-0.093815 -0.164285 -0.125280 0 255 0
-0.013179 0.587346 0.108592 153 76 0
0.037915 -0.385484 -0.203381 255 0 0
0.162160 -0.061044 -0.156816 0 255 0
-0.050845 -0.258372 -0.094743 0 255 0
-0.017469 -0.044728 -0.085697 153 76 0
-0.084680 -0.276510 -0.041800 0 255 0
-0.068982 -0.187904 -0.111379 0 255 0
0.018273 0.586047 0.228757 153 76 0
-0.064024 -0.341305 -0.186704 255 0 0
-0.013952 0.705369 0.374817 153 76 0
-0.063403 -0.344732 -0.161572 0 255 0
0.107627 -0.176905 -0.137647 255 0 0
0.016028 0.550923 0.170423 153 76 0
0.027783 -0.078959 -0.122818 153 76 0
-0.030152 0.009078 -0.079656 153 76 0
-0.208872 0.006044 -0.129100 127 127 0
0.135457 -0.181500 -0.163718 127 127 0
-0.013094 0.632860 0.349992 153 76 0
0.013597 0.380776 -0.068884 153 76 0
-0.006892 -0.336631 -0.086756 127 127 0
0.069957 -0.166193 -0.115485 127 127 0
0.034052 0.641816 0.644054 153 76 0
0.038739 0.626355 0.721583 153 76 0
-0.155606 -0.143314 -0.103655 0 255 0
-0.004130 -0.396293 -0.208671 255 0 0
-0.291644 -0.043105 -0.022224 127 127 0
-0.017281 -0.258769 -0.206940 255 0 0
0.039587 0.412223 -0.009925 153 76 0
0.037788 0.667373 0.558072 153 76 0
0.189945 -0.222233 -0.082174 127 127 0
0.164088 -0.273169 -0.153859 127 127 0
-0.024851 0.186144 -0.119887 153 76 0
0.034204 -0.058991 -0.094832 153 76 0
0.225547 0.009443 -0.060047 0 255 0
0.038973 0.599447 0.765237 76 0 153
-0.070098 -0.288329 -0.157514 0 255 0
0.152382 0.006648 -0.138489 0 255 0
-0.123755 -0.272058 -0.047018 0 255 0
0.031298 0.656366 0.412724 153 76 0
0.244800 0.014723 -0.146110 0 255 0
0.126431 -0.142816 -0.154448 127 127 0
-0.065851 -0.151553 -0.185303 255 0 0
0.060550 -0.113989 -0.124794 153 76 0
0.037697 0.225318 -0.099109 153 76 0
0.027921 -0.352749 -0.173050 127 127 0
0.167478 -0.211425 -0.180157 127 127 0
0.039005 -0.095181 -0.089792 153 76 0
-0.007001 -0.027476 -0.088554 153 76 0
-0.286367 -0.012715 -0.002911 127 127 0
-0.033960 0.033243 -0.094515 153 76 0
-0.070912 -0.360418 -0.144348 0 255 0
0.137504 -0.186402 -0.047652 127 127 0
-0.108098 -0.116341 -0.100518 0 255 0
-0.246049 -0.013838 -0.140306 127 127 0
-0.007245 -0.405788 -0.014229 255 0 0
-0.004394 0.042679 -0.131782 153 76 0
0.033582 0.353808 -0.064014 153 76 0
0.193193 -0.211283 -0.080478 127 127 0
0.029046 0.561268 0.171951 153 76 0
0.133366 -0.362953 -0.118511 127 127 0
0.232091 -0.102569 -0.122228 0 255 0
0.156459 -0.137373 -0.125869 0 255 0
-0.068555 -0.396893 -0.008321 255 0 0
0.030069 0.657655 0.524593 153 76 0
-0.053527 -0.255653 0.003018 255 0 0
-0.021692 0.119645 -0.123142 153 76 0
0.014014 0.589026 0.237360 153 76 0
-0.008005 0.070325 -0.130947 153 76 0
0.037691 0.643965 0.665972 153 76 0
0.016467 -0.405788 -0.008466 255 0 0
0.179224 -0.267945 -0.116598 127 127 0
0.019100 -0.202125 -0.207447 255 0 0
0.183365 -0.156459 -0.056308 127 127 0
0.027033 -0.002431 -0.068155 153 76 0
0.033396 0.652010 0.379038 153 76 0
0.023427 0.711372 0.540007 153 76 0
-0.084131 -0.153102 -0.167800 255 0 0
0.011845 -0.320538 -0.208402 255 0 0
0.037921 0.112509 -0.106819 153 76 0
-0.193645 -0.003933 -0.013261 127 127 0
0.028254 0.540928 0.146155 153 76 0
-0.105377 -0.350927 -0.038871 0 255 0
-0.143616 -0.179684 -0.150638 0 255 0
-0.132951 -0.329034 -0.052862 0 255 0
0.103371 -0.157732 -0.115543 127 127 0
-0.111514 -0.160838 -0.059357 0 255 0
0.024898 -0.243611 -0.206683 255 0 0
-0.117468 -0.251179 -0.154611 0 255 0
0.196782 -0.165612 -0.103704 127 127 0
-0.018996 0.616412 0.691798 153 76 0
0.235236 -0.039484 -0.195555 0 255 0
0.285204 -0.041863 -0.136447 0 255 0
0.073445 -0.405788 -0.035512 255 0 0
-0.026522 0.623632 0.694050 153 76 0
0.107163 -0.288223 -0.155637 127 127 0
0.039441 0.072742 -0.093101 153 76 0
-0.092238 -0.143556 -0.103423 0 255 0
-0.024989 0.627886 0.677858 153 76 0
0.009807 0.622931 0.650325 153 76 0
-0.090010 -0.269128 -0.016185 0 255 0
0.123142 -0.233446 -0.160771 127 127 0
-0.032671 -0.070151 -0.109258 153 76 0
0.003011 0.053712 -0.132710 153 76 0
0.029110 -0.405788 -0.108680 255 0 0
-0.309648 -0.036138 -0.043682 127 127 0
-0.201000 -0.070570 -0.099993 127 127 0
-0.020299 -0.007271 -0.080484 153 76 0
0.029569 0.189465 -0.121125 153 76 0
-0.032735 0.588317 0.147048 153 76 0
-0.008262 0.634946 0.369458 153 76 0
0.038905 -0.251561 -0.202970 255 0 0
-0.194173 -0.210241 -0.036287 0 255 0
0.149977 -0.264808 -0.104955 127 127 0
0.032136 0.332964 -0.074980 153 76 0
-0.016032 0.103750 -0.064063 153 76 0
0.053318 -0.216143 -0.144718 127 127 0
0.024259 -0.357147 -0.059664 127 127 0
-0.029469 -0.005969 -0.113541 153 76 0
-0.012537 -0.309079 -0.207565 255 0 0
0.026635 -0.310708 0.014906 255 0 0
-0.009253 -0.152929 -0.207997 255 0 0
0.026218 -0.364258 -0.161391 127 127 0
0.080305 -0.333659 -0.040240 127 127 0
-0.003503 0.619989 0.315741 153 76 0
-0.108390 -0.291278 -0.128000 0 255 0
0.022000 0.088168 -0.064293 153 76 0
0.089128 -0.405788 -0.160562 255 0 0
-0.068179 -0.226591 -0.082694 0 255 0
0.046625 -0.332421 0.008224 255 0 0
-0.107238 -0.359808 -0.124200 255 0 0
-0.106681 -0.327244 -0.149103 0 255 0
0.096362 -0.213471 -0.152464 127 127 0
-0.173472 -0.207464 -0.052249 0 255 0
-0.030493 0.563885 0.107977 153 76 0
0.115867 -0.314225 -0.101701 255 0 0
-0.029320 0.648943 0.735020 153 76 0
-0.230246 0.021813 -0.026198 127 127 0
0.178428 -0.152519 -0.161269 127 127 0
-0.028573 0.099271 -0.115037 153 76 0
0.058913 -0.287843 -0.078377 127 127 0
0.095138 -0.214519 -0.182197 127 127 0
0.111677 -0.243731 -0.127868 255 0 0
-0.179409 -0.113872 -0.120537 127 127 0
0.078084 -0.151470 -0.131179 127 127 0
0.039236 0.671975 0.395396 153 76 0
-0.036405 -0.168167 0.010110 255 0 0
-0.095937 -0.145592 -0.152186 255 0 0
0.033483 0.067543 -0.075525 153 76 0
0.035914 -0.405788 -0.139716 255 0 0
0.187981 -0.218689 -0.159364 127 127 0
-0.244938 -0.097989 -0.086349 127 127 0
0.122874 -0.293023 -0.081063 127 127 0
-0.097787 -0.355933 -0.036106 0 255 0
0.016767 -0.354525 -0.074731 127 127 0
-0.031951 0.119686 -0.083999 153 76 0
-0.071216 -0.324908 -0.135641 0 255 0
-0.166808 -0.286033 -0.097834 0 255 0
0.073947 -0.282636 -0.043788 127 127 0
-0.183233 -0.158688 -0.109698 0 255 0
0.101137 -0.405788 -0.122634 255 0 0
0.130691 -0.141648 -0.085379 127 127 0
-0.003342 -0.328969 -0.046110 0 255 0
0.039697 0.171579 -0.096499 153 76 0
0.052308 -0.291323 -0.141519 127 127 0
0.211308 -0.107276 -0.150620 0 255 0
0.292363 -0.012330 -0.127460 0 255 0
0.118374 -0.379999 -0.139729 127 127 0
0.015581 0.709569 0.592753 153 76 0
-0.173850 -0.273640 -0.069558 0 255 0
-0.227908 -0.086550 -0.092228 127 127 0
-0.132170 -0.158209 -0.118127 0 255 0
0.046424 -0.327269 -0.042902 127 127 0
-0.026806 0.655640 0.247950 153 76 0
0.109935 -0.405788 -0.084346 255 0 0
0.064292 -0.114657 -0.074734 153 76 0
-0.190636 -0.242536 -0.100837 0 255 0
-0.028154 -0.103086 -0.046638 153 76 0
-0.032233 0.415180 -0.019334 153 76 0
0.139230 -0.138702 -0.108124 127 127 0
-0.031389 0.642498 0.310201 153 76 0
-0.103487 -0.306839 -0.049351 0 255 0
-0.031384 -0.270956 -0.203738 255 0 0
-0.016510 0.706033 0.597092 153 76 0
-0.147519 -0.295443 -0.045022 0 255 0
-0.203825 -0.184965 -0.028899 0 255 0
-0.084625 -0.293944 -0.024393 255 0 0
0.063328 -0.328637 0.000038 255 0 0
-0.239560 -0.015067 0.005319 127 127 0
0.038655 0.630401 0.711210 153 76 0
-0.008296 0.588327 0.236205 153 76 0
0.197567 -0.074270 -0.119140 0 255 0
0.007380 0.166689 -0.132135 153 76 0
-0.015841 0.037777 -0.127633 153 76 0
-0.308669 -0.019943 -0.068942 127 127 0
0.030994 0.489903 0.020265 153 76 0
0.026202 0.639558 0.358388 153 76 0
-0.152020 -0.289741 -0.125622 0 255 0
-0.167289 -0.167907 -0.008762 0 255 0
-0.008324 -0.025186 -0.130815 153 76 0
0.019336 0.560265 0.733027 76 0 153
-0.284996 -0.009167 -0.031237 127 127 0
-0.032640 0.393100 -0.008204 153 76 0
-0.097882 -0.331483 -0.056776 0 255 0
-0.027271 -0.056971 -0.096983 153 76 0
0.011070 0.588530 0.729237 76 0 153
0.190764 -0.077556 -0.180192 0 255 0
0.016043 0.490300 0.006345 153 76 0
0.002956 0.414395 -0.050411 153 76 0
0.201108 -0.078153 -0.155495 0 255 0
0.124933 -0.360823 -0.074671 127 127 0
0.038081 -0.234759 -0.107403 127 127 0
0.043140 -0.369416 0.009668 255 0 0
0.201425 -0.182520 -0.165907 127 127 0
-0.046323 -0.282456 -0.197550 255 0 0
0.015807 -0.104532 -0.109134 153 76 0
-0.044018 -0.222870 -0.068734 0 255 0
-0.065058 -0.141819 -0.185911 255 0 0
-0.119970 -0.150678 -0.138351 0 255 0
-0.001678 0.431981 -0.038609 153 76 0
-0.203655 -0.178943 -0.130070 0 255 0
-0.104836 -0.342711 -0.060847 255 0 0
0.122249 -0.211326 -0.046518 127 127 0
-0.214975 0.035910 -0.098803 127 127 0
-0.024154 0.171449 -0.120796 153 76 0
0.135291 -0.096349 -0.139430 0 255 0
-0.107454 -0.132942 -0.102532 255 0 0
0.068828 -0.174043 -0.004182 255 0 0
0.097050 -0.132942 -0.076180 127 127 0
0.129716 -0.314843 -0.058850 127 127 0
0.122911 -0.234943 -0.187246 127 127 0
-0.005036 -0.321170 -0.138062 0 255 0
0.036126 -0.235674 0.012573 255 0 0
-0.066215 -0.356307 -0.049564 0 255 0
0.094094 -0.127889 -0.148173 255 0 0
0.034374 0.549639 0.084666 153 76 0
-0.009578 0.698333 0.332943 153 76 0
0.070976 -0.240875 -0.005830 255 0 0
0.010516 -0.291551 -0.109736 127 127 0
0.091641 -0.139034 -0.165399 255 0 0
0.059813 -0.373281 0.002736 255 0 0
0.227750 0.024553 -0.116854 0 255 0
0.182747 -0.058698 -0.069245 0 255 0
0.110055 -0.172973 -0.059764 255 0 0
-0.065011 -0.267177 -0.005601 255 0 0
-0.006119 0.558442 0.729533 76 0 153
0.097273 -0.240553 -0.033490 255 0 0
-0.043089 -0.084359 -0.088034 153 76 0
0.051238 -0.182737 0.006313 255 0 0
-0.108928 -0.214150 -0.080185 255 0 0
-0.108458 -0.321826 -0.076620 255 0 0
0.185156 -0.086308 -0.080328 0 255 0
0.135175 -0.224953 -0.074398 127 127 0
0.246089 -0.040451 -0.066399 0 255 0
0.022643 0.649392 0.423850 153 76 0
-0.034275 -0.346451 -0.049238 0 255 0
0.174386 -0.260627 -0.147803 127 127 0
-0.072892 -0.246807 -0.011649 255 0 0
-0.099620 -0.354426 -0.145392 255 0 0
-0.022694 0.566299 0.776113 76 0 153
-0.178394 -0.229808 -0.130099 0 255 0
0.030526 0.116115 -0.119878 153 76 0
-0.141346 -0.139720 -0.115834 0 255 0
0.119376 -0.168981 -0.156573 127 127 0
-0.029952 0.660197 0.575341 153 76 0
-0.007576 -0.329833 -0.067277 0 255 0
-0.253864 -0.100868 -0.093894 127 127 0
0.212449 -0.183697 -0.148564 127 127 0
0.087065 -0.156664 -0.171362 255 0 0
-0.272209 -0.095837 -0.079267 127 127 0
0.135352 -0.350183 -0.086750 127 127 0
-0.298908 -0.056972 -0.089178 127 127 0
0.025819 -0.096510 -0.067224 153 76 0
-0.027912 0.651354 0.607216 153 76 0
-0.033971 0.336626 -0.048204 153 76 0
0.038941 -0.176153 0.011407 255 0 0
-0.095276 -0.182552 -0.026577 0 255 0
-0.019245 0.308805 -0.093189 153 76 0
0.082838 -0.200598 -0.176616 127 127 0
-0.009294 0.169510 -0.061136 153 76 0
0.165572 -0.236378 -0.062786 127 127 0
-0.030045 0.694577 0.564478 153 76 0
0.180387 -0.030074 -0.192702 0 255 0
0.098809 -0.378248 -0.054323 127 127 0
-0.033477 -0.405788 -0.141060 255 0 0
0.007892 -0.104532 -0.090410 153 76 0
-0.184060 -0.040557 -0.127100 127 127 0
0.046857 -0.110959 -0.050650 153 76 0
-0.186147 -0.206534 -0.133253 0 255 0
0.013715 -0.042281 -0.077482 153 76 0
-0.090613 -0.204654 -0.143359 0 255 0
0.007995 0.054732 -0.059495 153 76 0
-0.007843 -0.336255 -0.128007 127 127 0
0.005817 -0.303939 -0.120281 127 127 0
-0.016236 0.714412 0.523132 153 76 0
-0.161029 -0.127073 -0.032996 127 127 0
0.151056 -0.053900 -0.158781 0 255 0
-0.164039 -0.262487 -0.127630 0 255 0
0.282270 -0.049934 -0.127617 0 255 0
-0.070986 -0.178863 -0.010186 255 0 0
0.004819 0.403236 0.029657 153 76 0
0.032015 -0.262411 0.014198 255 0 0
-0.217485 -0.177896 -0.115210 0 255 0
0.069229 -0.405788 -0.073232 255 0 0
0.114864 -0.354473 -0.161151 127 127 0
0.229408 -0.074246 -0.073730 0 255 0
0.152643 -0.205023 -0.050375 127 127 0
0.018016 -0.295917 0.016041 255 0 0
0.125171 -0.120102 -0.140329 0 255 0
0.027757 0.381276 0.004375 153 76 0
-0.089852 -0.291413 -0.042254 0 255 0
0.067306 -0.232893 -0.115296 127 127 0
0.188715 -0.068668 -0.081912 0 255 0
-0.194978 -0.060079 -0.009136 127 127 0
0.052612 -0.290050 -0.174981 127 127 0
0.032303 -0.187540 0.014156 255 0 0
0.034462 -0.368618 0.013262 255 0 0
-0.027019 -0.256286 -0.205546 255 0 0
0.007806 0.635003 0.375689 153 76 0
-0.034085 0.655571 0.306750 153 76 0
-0.187498 -0.230663 -0.043561 0 255 0
0.014612 0.150275 -0.130558 153 76 0
0.097872 -0.393756 -0.090014 127 127 0
0.042374 -0.358554 -0.178244 127 127 0
0.045690 -0.197526 -0.200160 255 0 0
-0.161324 -0.297991 -0.090866 0 255 0
0.000129 0.376092 -0.072410 153 76 0
0.107285 -0.135054 -0.138471 255 0 0
-0.209261 -0.078529 -0.056200 127 127 0
-0.273960 0.007811 -0.090664 127 127 0
0.035856 -0.085488 -0.111804 153 76 0
-0.287036 -0.001201 -0.069978 127 127 0
0.125072 -0.190105 -0.188891 127 127 0
0.043329 -0.078419 -0.081294 153 76 0
-0.096404 -0.203234 -0.040491 255 0 0
-0.033897 0.102614 -0.094040 153 76 0
0.069117 -0.256600 -0.144113 127 127 0
0.005158 0.710484 0.379919 153 76 0
0.039129 0.380975 -0.033802 153 76 0
-0.133711 -0.260951 -0.149419 0 255 0
-0.163076 -0.156452 -0.123825 0 255 0
0.019605 -0.347271 -0.130177 127 127 0
-0.081127 -0.341512 -0.157758 0 255 0
0.176991 -0.196449 -0.179427 127 127 0
0.020308 0.518719 0.128174 153 76 0
0.085124 -0.262901 -0.072455 127 127 0
0.030339 -0.259447 -0.089682 127 127 0
-0.158236 -0.044012 -0.079711 127 127 0
-0.032660 -0.320560 -0.056496 0 255 0
-0.033493 0.013494 -0.090970 153 76 0
0.019161 -0.288159 -0.082554 127 127 0
-0.226883 -0.071078 -0.003230 127 127 0
0.157555 0.014397 -0.148316 0 255 0
0.160659 -0.245105 -0.117996 127 127 0
-0.025286 0.706770 0.479785 153 76 0
0.167135 -0.033122 -0.186213 0 255 0
-0.178962 -0.119865 -0.052177 127 127 0
0.093684 -0.273453 -0.042656 127 127 0
-0.086358 -0.396318 -0.026651 255 0 0
0.274718 -0.053651 -0.103360 0 255 0
0.029362 -0.010539 -0.121395 153 76 0
-0.063344 -0.239575 -0.099695 0 255 0
0.179238 0.037640 -0.170755 0 255 0
0.066049 -0.190767 -0.002049 255 0 0
0.075677 -0.132942 -0.149098 255 0 0
0.071187 -0.235960 -0.185557 255 0 0
-0.110824 -0.246144 -0.130555 0 255 0
-0.166333 -0.235327 -0.068375 0 255 0
0.008070 0.511923 0.022664 153 76 0
-0.024333 0.698219 0.379278 153 76 0
-0.033330 0.094359 -0.089733 153 76 0
0.112884 -0.232695 -0.045140 127 127 0
0.034090 -0.405788 -0.017365 255 0 0
0.112802 -0.125730 -0.100039 127 127 0
-0.018339 0.601681 0.722780 153 76 0
0.036047 0.691462 0.391848 153 76 0
0.109350 -0.264024 -0.158842 127 127 0
0.037302 0.694246 0.449526 153 76 0
-0.102589 -0.383305 -0.079941 0 255 0
-0.053813 -0.140142 0.002899 255 0 0
0.155983 -0.147869 -0.128775 127 127 0
0.138771 -0.137166 -0.086430 127 127 0
-0.033334 0.563628 0.122283 153 76 0
0.242758 -0.084889 -0.092318 0 255 0
-0.029568 -0.140618 -0.204490 255 0 0
-0.015554 -0.080892 -0.127820 153 76 0
0.147627 -0.285991 -0.063930 127 127 0
-0.274872 0.008188 -0.102847 127 127 0
0.034268 0.210630 -0.071018 153 76 0
0.082727 -0.317618 -0.014847 255 0 0
0.023282 0.697352 0.347702 153 76 0
0.051441 -0.369891 -0.197778 255 0 0
-0.176427 -0.161085 -0.024320 0 255 0
0.021483 -0.405788 0.005954 255 0 0
-0.097065 -0.363634 -0.042086 0 255 0
-0.176878 -0.268987 -0.094795 0 255 0
0.031528 0.190820 -0.072283 153 76 0
0.201193 0.036739 -0.122712 0 255 0
0.006701 -0.079258 -0.052448 153 76 0
0.022752 0.567275 0.191907 153 76 0
0.039473 0.463778 0.025303 153 76 0
0.114438 -0.399084 -0.112556 127 127 0
-0.158208 -0.143273 -0.124422 127 127 0
-0.048453 -0.098117 -0.115277 153 76 0
-0.030049 0.350162 -0.061492 153 76 0
-0.016835 -0.039950 -0.094027 153 76 0
0.126121 -0.377813 -0.119382 127 127 0
-0.028625 -0.267148 0.013332 255 0 0
0.188663 -0.099212 -0.088401 0 255 0
-0.033911 0.136225 -0.097407 153 76 0
-0.021480 -0.309350 -0.084742 0 255 0
-0.195816 -0.144350 -0.115352 127 127 0
0.018163 0.689810 0.668688 153 76 0
-0.210739 -0.184222 -0.119751 0 255 0
-0.046740 -0.405788 -0.049443 255 0 0
0.004066 0.587083 0.722216 76 0 153
-0.181952 -0.050877 -0.122153 127 127 0
-0.105364 -0.216840 -0.014608 0 255 0
0.150664 -0.099028 -0.116970 0 255 0
0.161951 -0.202264 -0.083930 127 127 0
0.039708 0.591186 0.172842 153 76 0
0.191439 -0.093093 -0.081066 0 255 0
