ply
format ascii 1.0
element vertex 1276
property float x
property float y
property float z
property uchar red
property uchar green
property uchar blue
end_header
0.069108 -0.615080 -0.511895 0 255 0
0.033311 0.587645 0.095331 76 153 0
0.011511 0.012892 -0.128680 76 153 0
0.057342 -0.013686 -0.100871 76 153 0
0.065066 0.609644 0.057443 76 153 0
0.040091 -0.028383 -0.006023 76 153 0
0.022960 0.733339 0.336846 76 153 0
-0.002698 0.279078 0.005905 76 153 0
0.064170 -0.601332 -0.037710 76 153 0
-0.091477 -0.660322 -0.173719 153 0 76
0.067594 0.412208 0.529774 76 153 0
0.017352 -0.530415 0.002842 76 153 0
-0.020557 0.246897 -0.125476 76 153 0
0.065526 0.417789 -0.079543 76 153 0
0.038111 0.611744 0.130385 76 153 0
0.024088 0.744626 0.151845 76 153 0
-0.031604 0.524106 0.416406 76 153 0
0.058854 -0.260314 -0.099361 76 153 0
0.027182 0.450248 0.006433 76 153 0
-0.064253 -0.624901 -0.049582 76 153 0
0.052843 0.492015 0.454848 76 153 0
-0.009527 -0.505513 -0.633354 0 255 0
0.028938 -0.665058 -0.124032 76 153 0
-0.013937 0.679980 0.444835 76 153 0
-0.051297 0.445407 0.479316 76 153 0
0.019071 -0.352544 -0.126664 76 153 0
-0.075107 -0.686496 -0.190090 153 0 76
0.057228 0.327078 -0.100998 76 153 0
0.004361 0.604734 0.143520 76 153 0
0.000217 0.558190 -0.095443 76 153 0
0.107495 -0.641133 -0.482784 76 0 153
-0.052396 0.640745 0.291026 76 153 0
0.137469 -0.663110 -0.009356 153 0 76
-0.064509 0.449901 -0.067603 76 153 0
0.050307 0.637461 0.166290 76 153 0
-0.036738 -0.665852 -0.118413 76 153 0
-0.056657 -0.552520 -0.503603 0 255 0
0.044637 -0.483960 -0.113601 76 153 0
0.030850 -0.370215 -0.000735 76 153 0
0.118853 -0.641133 -0.638420 76 0 153
-0.050725 0.648494 0.229636 76 153 0
-0.051088 0.613829 0.101340 76 153 0
-0.017959 0.093989 0.001862 76 153 0
-0.040115 0.227481 0.573861 76 153 0
0.018663 0.041119 -0.126783 76 153 0
0.020588 0.135776 -0.126280 76 153 0
-0.087848 -0.574220 -0.547241 0 255 0
0.001204 -0.647126 -0.107756 153 0 76
0.057619 -0.604719 -0.654454 0 255 0
-0.047586 0.251848 0.669665 76 153 0
0.030065 -0.641133 -0.645588 76 0 153
0.064618 0.605944 0.457781 76 153 0
-0.056300 -0.419620 -0.098837 76 153 0
-0.018993 -0.692508 -0.206500 153 0 76
-0.039326 0.694333 0.399381 76 153 0
-0.030330 -0.497788 -0.001418 76 153 0
-0.060592 0.470311 -0.025236 76 153 0
0.042572 -0.541306 -0.115669 76 153 0
-0.022826 -0.595623 -0.124836 76 153 0
-0.051968 0.278070 0.652883 76 153 0
-0.039069 0.532320 0.543326 76 153 0
-0.042426 0.491885 -0.098252 76 153 0
-0.030095 -0.505374 -0.556225 0 255 0
-0.044262 0.599066 0.361090 76 153 0
0.046713 0.479650 -0.100999 76 153 0
-0.058793 -0.508352 -0.506532 0 255 0
0.085738 -0.607845 -0.534856 0 255 0
0.002604 -0.647126 -0.030737 153 0 76
0.105622 -0.647126 -0.129689 153 0 76
0.045572 0.050289 -0.112714 76 153 0
0.036207 0.265664 0.679967 76 153 0
-0.140958 -0.682238 -0.089094 153 0 76
-0.004055 0.756832 0.235533 76 153 0
-0.051163 -0.275477 -0.020332 76 153 0
-0.065788 -0.098999 -0.069056 76 153 0
0.061950 -0.614178 -0.610071 76 0 153
-0.146479 -0.663630 -0.055816 153 0 76
-0.013930 0.372662 -0.127238 76 153 0
-0.016506 0.652376 0.470846 76 153 0
-0.057513 -0.235954 -0.097609 76 153 0
-0.067099 0.226324 0.631331 76 153 0
-0.002217 -0.183032 -0.130333 76 153 0
0.062209 -0.371253 -0.093936 76 153 0
-0.008617 -0.239025 -0.128626 76 153 0
-0.011357 -0.543782 -0.127895 76 153 0
0.054687 0.648032 0.209076 76 153 0
-0.080504 -0.674489 0.060385 153 0 76
-0.082503 -0.647126 -0.089932 153 0 76
-0.034228 0.280379 0.540679 76 153 0
-0.010102 0.607907 0.307183 76 153 0
-0.052814 -0.544368 -0.022004 76 153 0
0.064757 0.704836 0.164668 76 153 0
-0.049483 0.519891 0.439179 76 153 0
-0.027009 0.196878 0.646939 76 153 0
-0.062467 0.298586 -0.042913 76 153 0
0.036151 0.658863 0.458326 76 153 0
0.067123 0.499420 -0.057005 76 153 0
-0.058741 -0.382061 -0.029001 76 153 0
0.061796 0.629395 0.002347 76 153 0
0.010449 -0.616796 0.004671 76 153 0
-0.012845 -0.647126 -0.063433 153 0 76
-0.062888 0.030941 -0.044489 76 153 0
0.021461 0.207106 -0.126054 76 153 0
-0.024131 0.005863 -0.124514 76 153 0
0.004253 -0.641133 -0.458671 76 0 153
-0.052164 -0.647126 -0.139543 153 0 76
0.090540 -0.641133 -0.612932 76 0 153
0.013012 0.549610 0.390184 76 153 0
0.066382 0.662782 0.150190 76 153 0
0.143753 -0.647614 -0.623012 76 0 153
-0.066623 -0.641133 -0.600065 76 0 153
-0.019039 0.622298 0.268784 76 153 0
-0.062523 -0.614686 -0.554652 76 0 153
-0.068882 -0.647126 0.035189 153 0 76
0.014791 -0.510768 -0.441390 0 255 0
0.015106 -0.556050 -0.434258 0 255 0
0.069640 -0.626286 -0.058139 76 153 0
-0.058925 0.240063 -0.029695 76 153 0
0.063477 -0.641133 -0.526799 76 0 153
-0.065445 0.415159 0.548593 76 153 0
0.024465 0.633259 -0.036090 76 153 0
-0.036881 0.498363 0.562322 76 153 0
-0.055896 0.289231 -0.099232 76 153 0
-0.066529 -0.613141 -0.512475 0 255 0
-0.117304 -0.692321 -0.147892 153 0 76
0.004184 0.083514 -0.130634 76 153 0
-0.012152 -0.478219 -0.127683 76 153 0
-0.065123 0.452464 0.512803 76 153 0
-0.027384 0.391169 0.620573 76 153 0
0.022893 -0.548414 -0.670433 0 255 0
-0.113519 -0.641133 -0.570992 76 0 153
-0.080051 -0.641230 -0.459443 76 0 153
-0.074676 -0.667637 -0.707116 76 0 153
-0.066762 0.387180 0.556581 76 153 0
-0.067310 0.415284 -0.059289 76 153 0
-0.061503 0.617381 0.380977 76 153 0
0.003253 0.218152 0.006578 76 153 0
-0.048475 -0.289511 -0.106723 76 153 0
0.096437 -0.617137 -0.580535 0 255 0
0.030570 0.320210 0.655156 76 153 0
0.100836 -0.641133 -0.518025 76 0 153
-0.059147 0.601662 0.474384 76 153 0
-0.018475 0.710999 0.391888 76 153 0
0.050276 -0.647126 -0.123684 153 0 76
0.068615 -0.019194 -0.054307 76 153 0
-0.092068 -0.606650 -0.592599 0 255 0
0.056509 0.295375 -0.101719 76 153 0
-0.003195 0.307826 0.005773 76 153 0
-0.001356 0.493261 -0.116425 76 153 0
-0.037853 -0.641133 -0.637485 76 0 153
-0.062809 0.535917 0.459573 76 153 0
-0.049467 -0.061665 -0.105726 76 153 0
-0.055342 -0.663066 -0.024560 76 153 0
-0.058737 0.434017 0.568090 76 153 0
0.087735 -0.529075 -0.538315 0 255 0
0.024319 0.023422 0.000997 76 153 0
0.055503 -0.432744 -0.102719 76 153 0
-0.064493 -0.430434 -0.073901 76 153 0
0.051780 0.284062 0.555079 76 153 0
0.007404 -0.666987 -0.727319 76 0 153
0.046092 0.573167 0.515129 76 153 0
0.005181 -0.392964 0.006067 76 153 0
-0.010987 -0.579750 -0.444463 0 255 0
0.065679 -0.640406 -0.554859 76 0 153
-0.097975 -0.659975 -0.690229 76 0 153
0.045111 0.538705 -0.083390 76 153 0
0.003854 0.568070 0.540570 76 153 0
0.024131 0.334668 -0.125355 76 153 0
0.069116 -0.287564 -0.056182 76 153 0
-0.001377 -0.159594 0.006254 76 153 0
-0.014422 0.742604 0.314566 76 153 0
-0.008677 -0.647126 -0.148331 153 0 76
-0.005756 0.058127 -0.129389 76 153 0
-0.052392 -0.059167 -0.021572 76 153 0
0.063826 -0.663842 -0.036423 76 153 0
0.068485 -0.052679 -0.053823 76 153 0
0.078293 -0.616675 -0.634406 0 255 0
-0.028612 0.034319 -0.000961 76 153 0
0.066770 0.666453 0.081836 76 153 0
-0.019095 -0.510199 -0.486154 0 255 0
0.086352 -0.647505 0.052739 153 0 76
0.062839 -0.581337 -0.091580 76 153 0
-0.052118 0.721360 0.301529 76 153 0
-0.071242 -0.593101 -0.638791 0 255 0
-0.056912 -0.480595 -0.098220 76 153 0
0.062387 0.222373 0.667740 76 153 0
0.043778 -0.154397 -0.114490 76 153 0
0.057409 0.341409 -0.023509 76 153 0
-0.028716 -0.104152 -0.123294 76 153 0
-0.015204 -0.647126 0.022486 153 0 76
0.039639 0.537575 0.543572 76 153 0
0.064927 0.688233 0.113750 76 153 0
0.001517 0.578144 0.097099 76 153 0
-0.027343 -0.357608 -0.000626 76 153 0
-0.046811 0.722949 0.139130 76 153 0
0.021894 0.250732 -0.125942 76 153 0
0.047650 -0.590819 -0.013660 76 153 0
0.041017 -0.505701 -0.648561 0 255 0
-0.022480 -0.356997 -0.124929 76 153 0
-0.071939 -0.641133 -0.631163 76 0 153
-0.051206 -0.390660 -0.103972 76 153 0
-0.080719 -0.553852 -0.531535 0 255 0
0.069312 0.070840 -0.067426 76 153 0
-0.010896 0.627279 -0.046164 76 153 0
-0.063528 0.701910 0.252913 76 153 0
0.067806 0.125178 -0.073040 76 153 0
0.027594 0.245387 0.554008 76 153 0
0.057113 0.499103 0.542906 76 153 0
0.024051 0.417840 -0.123343 76 153 0
0.065538 0.666627 0.378759 76 153 0
-0.044202 -0.647126 -0.188034 153 0 76
-0.019741 -0.204015 0.001389 76 153 0
0.068608 0.449152 -0.063953 76 153 0
-0.064809 0.123027 -0.051656 76 153 0
0.025362 -0.053408 -0.125004 76 153 0
-0.061293 0.694873 0.126710 76 153 0
0.095313 -0.523956 -0.565272 0 255 0
-0.011577 -0.614510 -0.511291 76 0 153
-0.061971 0.497016 -0.021962 76 153 0
0.073871 -0.641133 -0.679311 76 0 153
0.050307 -0.127096 -0.107917 76 153 0
0.004617 0.520162 -0.107632 76 153 0
0.038728 -0.623431 -0.491244 0 255 0
-0.034269 0.586510 0.516696 76 153 0
-0.002380 -0.275262 0.005989 76 153 0
0.062393 0.720189 0.222098 76 153 0
0.047707 0.250854 -0.110593 76 153 0
-0.045518 -0.641133 -0.691144 76 0 153
-0.019488 0.443203 0.597536 76 153 0
0.068377 -0.165072 -0.070923 76 153 0
0.018601 0.501960 0.570061 76 153 0
0.037582 0.737955 0.307565 76 153 0
-0.055477 0.450732 -0.093335 76 153 0
-0.063133 -0.227181 -0.045406 76 153 0
0.043052 0.737419 0.179751 76 153 0
-0.037639 -0.671377 0.077197 153 0 76
0.056456 0.275520 0.652169 76 153 0
0.039899 -0.251612 -0.118388 76 153 0
-0.021343 0.627052 0.231997 76 153 0
0.052356 -0.340652 -0.018411 76 153 0
-0.042305 0.429556 0.589851 76 153 0
-0.016032 0.329987 -0.126679 76 153 0
0.067985 0.581599 0.014420 76 153 0
0.057919 0.546082 0.518953 76 153 0
0.010823 -0.641133 -0.700880 76 0 153
0.024423 -0.505257 -0.572580 0 255 0
0.073083 -0.660660 -0.709571 76 0 153
0.013278 0.170974 -0.128217 76 153 0
0.061916 0.537902 0.439986 76 153 0
0.031247 -0.647126 -0.179815 153 0 76
-0.119896 -0.658548 -0.490416 76 0 153
-0.025839 0.268815 -0.000226 76 153 0
-0.100869 -0.684832 -0.469188 76 0 153
-0.012002 -0.623685 -0.484412 0 255 0
-0.036266 0.028319 -0.119001 76 153 0
0.064061 0.474616 -0.077012 76 153 0
0.049433 -0.496024 -0.015460 76 153 0
0.066112 0.538511 -0.006895 76 153 0
-0.053365 0.371618 0.517622 76 153 0
0.070075 0.684870 0.260353 76 153 0
0.064101 0.636301 0.105080 76 153 0
0.041963 -0.259409 -0.007912 76 153 0
-0.049379 0.543071 -0.074195 76 153 0
0.069578 0.558726 0.469267 76 153 0
-0.011571 0.168807 0.589383 76 153 0
-0.060435 -0.022222 -0.035330 76 153 0
-0.028818 0.454026 0.005910 76 153 0
0.085297 -0.567564 -0.622409 0 255 0
0.061816 0.094732 -0.028926 76 153 0
-0.069282 -0.686553 -0.446618 76 0 153
-0.065424 0.691032 0.287044 76 153 0
0.011996 0.613743 0.507900 76 153 0
0.094039 -0.676642 -0.695313 76 0 153
0.016040 -0.647126 -0.138650 153 0 76
0.143057 -0.686179 -0.625162 76 0 153
-0.020968 0.132100 -0.125360 76 153 0
-0.146521 -0.685047 -0.560869 76 0 153
0.118179 -0.675784 -0.150457 153 0 76
0.020147 -0.424010 0.002101 76 153 0
0.043572 0.137614 -0.114746 76 153 0
0.013960 0.619840 0.182441 76 153 0
0.029494 -0.647126 -0.023380 153 0 76
-0.060716 -0.647126 -0.165870 153 0 76
-0.028542 0.448537 0.456111 76 153 0
-0.057278 -0.305771 -0.026512 76 153 0
-0.015837 -0.013047 0.002424 76 153 0
-0.035558 -0.664345 -0.722776 76 0 153
-0.047360 0.731312 0.260835 76 153 0
-0.130193 -0.641133 -0.623240 76 0 153
-0.064735 0.550754 -0.031593 76 153 0
0.062548 0.387603 -0.031662 76 153 0
-0.066750 -0.067745 -0.058902 76 153 0
-0.064597 0.343963 0.586916 76 153 0
0.036317 -0.647126 -0.072781 153 0 76
0.068273 0.254590 -0.071303 76 153 0
-0.010215 0.605689 -0.061855 76 153 0
-0.054042 -0.130667 -0.023240 76 153 0
-0.030135 0.053648 -0.122928 76 153 0
-0.065046 0.572702 0.445578 76 153 0
-0.056910 0.719507 0.173323 76 153 0
-0.101134 -0.647126 0.008145 153 0 76
0.062431 0.419736 0.503882 76 153 0
0.039101 0.513414 0.555955 76 153 0
-0.022247 0.171589 -0.125024 76 153 0
0.004772 0.544457 0.059309 76 153 0
0.044362 -0.336659 -0.113873 76 153 0
-0.092853 -0.620806 -0.571375 0 255 0
0.104403 -0.677657 -0.469710 76 0 153
0.066649 0.213684 -0.077371 76 153 0
0.013682 -0.447064 -0.128101 76 153 0
0.065283 0.245338 0.601423 76 153 0
0.067517 0.464043 0.504138 76 153 0
-0.065530 0.697070 0.221401 76 153 0
0.044184 0.412602 0.599474 76 153 0
-0.009543 0.484645 0.432894 76 153 0
-0.047165 0.206153 0.592966 76 153 0
0.147017 -0.661123 -0.543486 76 0 153
0.020743 0.294681 -0.126249 76 153 0
0.090318 -0.577019 -0.545299 0 255 0
-0.047069 0.292800 -0.016195 76 153 0
0.057188 0.627277 0.334205 76 153 0
0.053831 -0.039135 -0.104386 76 153 0
0.052007 0.063097 -0.018054 76 153 0
-0.131564 -0.679586 -0.510680 76 0 153
0.081709 -0.553930 -0.527877 0 255 0
-0.062377 0.278125 0.629763 76 153 0
-0.051826 0.061559 -0.020998 76 153 0
-0.057881 0.027270 -0.097234 76 153 0
-0.025990 0.624742 0.187123 76 153 0
0.055820 0.706145 0.344038 76 153 0
-0.052337 0.207638 -0.102825 76 153 0
-0.146437 -0.663962 -0.596384 76 0 153
-0.060999 0.383008 0.583301 76 153 0
0.084472 -0.641133 -0.572899 76 0 153
0.042316 0.463982 0.576490 76 153 0
0.033477 -0.623068 -0.667595 0 255 0
-0.064925 0.319626 0.597368 76 153 0
-0.043978 0.075949 -0.111263 76 153 0
0.048831 -0.425118 -0.014851 76 153 0
-0.062706 0.648083 0.337730 76 153 0
-0.064743 0.211480 -0.051409 76 153 0
0.096488 -0.555075 -0.580051 0 255 0
0.005085 -0.647126 -0.082861 153 0 76
-0.058908 -0.505706 -0.631965 0 255 0
-0.036970 -0.243633 -0.005998 76 153 0
-0.002310 0.751737 0.286260 76 153 0
-0.048280 0.132852 -0.017417 76 153 0
-0.040819 0.542233 0.036633 76 153 0
0.013249 0.728749 0.094229 76 153 0
0.069982 -0.102712 -0.064942 76 153 0
0.032850 -0.003387 -0.123026 76 153 0
0.025001 0.413458 0.471262 76 153 0
0.068346 0.672163 0.346298 76 153 0
0.050174 0.351980 0.622380 76 153 0
-0.031410 0.531485 -0.095561 76 153 0
0.103681 -0.661071 0.040647 153 0 76
-0.031817 0.616546 0.150736 76 153 0
0.057397 0.028654 -0.100814 76 153 0
-0.065160 0.321748 -0.052965 76 153 0
0.070133 0.596233 0.434687 76 153 0
0.022488 0.623180 0.261694 76 153 0
0.061311 -0.171660 -0.027456 76 153 0
0.064190 0.377756 0.531936 76 153 0
0.070327 0.680179 0.300555 76 153 0
-0.001114 0.430738 0.609070 76 153 0
-0.084674 -0.647126 -0.120733 153 0 76
-0.067464 0.684206 0.171935 76 153 0
0.029147 -0.508263 -0.000284 76 153 0
0.040438 0.380609 -0.117950 76 153 0
0.048324 0.544859 0.033044 76 153 0
-0.106112 -0.647503 -0.153840 153 0 76
0.065496 0.642735 0.417534 76 153 0
-0.030109 -0.413124 -0.001359 76 153 0
-0.062318 0.000271 -0.082019 76 153 0
-0.061370 0.557833 0.493169 76 153 0
0.014522 -0.110408 -0.127877 76 153 0
0.020220 0.646176 0.476558 76 153 0
-0.042937 0.352406 0.626778 76 153 0
-0.029369 -0.333106 -0.123106 76 153 0
0.054166 0.686409 0.389858 76 153 0
0.079183 -0.641133 -0.475007 76 0 153
-0.019805 0.312917 0.519679 76 153 0
0.000461 0.589775 0.337446 76 153 0
-0.066776 -0.311102 -0.059001 76 153 0
0.046905 -0.458089 -0.111329 76 153 0
0.051692 0.498911 0.002948 76 153 0
-0.115998 -0.641133 -0.529275 76 0 153
0.012413 0.696848 0.033329 76 153 0
-0.013138 0.358419 0.003139 76 153 0
0.015839 0.207203 0.668108 76 153 0
-0.031274 0.477360 0.577379 76 153 0
-0.023409 0.586113 0.355827 76 153 0
-0.063754 -0.666040 -0.047718 76 153 0
-0.064467 -0.562596 -0.073992 76 153 0
0.046805 0.468437 0.459580 76 153 0
-0.054767 -0.637092 -0.023979 76 153 0
0.059244 0.712787 0.138562 76 153 0
0.046805 -0.205299 -0.111427 76 153 0
0.118362 -0.687927 0.025967 153 0 76
0.064941 -0.505571 -0.572456 0 255 0
-0.136074 -0.659374 -0.016987 153 0 76
0.029324 -0.587277 -0.487435 0 255 0
-0.048500 0.611399 -0.031501 76 153 0
0.022693 0.096150 0.001428 76 153 0
-0.018043 0.566049 0.074393 76 153 0
0.065909 0.448174 -0.038273 76 153 0
-0.008231 -0.483487 0.004438 76 153 0
-0.058556 0.654028 0.255475 76 153 0
0.064839 0.393540 -0.084145 76 153 0
-0.023846 0.320190 0.000302 76 153 0
-0.117864 -0.647126 -0.085486 153 0 76
0.087314 -0.532832 -0.618916 0 255 0
-0.042026 0.246957 -0.113230 76 153 0
0.037071 0.706616 0.063092 76 153 0
-0.022590 0.163513 0.000635 76 153 0
-0.021308 0.321440 0.656386 76 153 0
-0.004402 -0.647126 0.064304 153 0 76
-0.065306 -0.537725 -0.070866 76 153 0
0.093283 -0.506646 -0.582685 0 255 0
0.122108 -0.647126 -0.039092 153 0 76
0.005666 -0.618744 -0.672856 0 255 0
0.037432 -0.566800 -0.120825 76 153 0
0.009487 0.687534 0.436468 76 153 0
0.038980 0.678109 0.021468 76 153 0
-0.012002 -0.528291 -0.448488 0 255 0
-0.060890 -0.050056 -0.087342 76 153 0
0.011612 0.445794 0.451540 76 153 0
0.042725 0.221875 0.576126 76 153 0
0.062448 0.707522 0.311083 76 153 0
-0.033561 -0.333951 -0.002556 76 153 0
-0.066143 -0.280913 -0.067738 76 153 0
-0.018523 0.211187 -0.126012 76 153 0
-0.024711 -0.381405 -0.124336 76 153 0
0.058437 -0.579802 -0.653860 0 255 0
-0.058703 0.329141 0.545340 76 153 0
-0.019756 -0.683283 -0.430362 76 0 153
0.020841 -0.647126 0.021214 153 0 76
0.069905 0.329783 -0.065205 76 153 0
-0.047617 -0.641133 -0.464863 76 0 153
-0.064885 0.424834 0.525270 76 153 0
-0.051662 -0.647126 -0.088714 153 0 76
-0.019179 -0.299757 0.001538 76 153 0
0.062764 0.587398 0.047198 76 153 0
-0.055982 -0.634975 -0.541438 76 0 153
-0.069800 -0.618644 -0.640393 0 255 0
-0.064497 0.652704 0.386658 76 153 0
0.070217 0.174979 -0.064051 76 153 0
0.039469 -0.618527 -0.521479 76 0 153
0.052524 -0.668889 0.074130 153 0 76
0.062393 0.329341 0.616749 76 153 0
-0.064347 -0.600315 -0.049935 76 153 0
0.063691 0.554443 0.013742 76 153 0
0.043256 0.392280 0.492746 76 153 0
0.017236 0.582768 0.526649 76 153 0
0.126580 -0.682844 -0.659863 76 0 153
0.065067 -0.369243 -0.041063 76 153 0
-0.060592 0.087595 -0.035920 76 153 0
-0.054186 0.180516 -0.023381 76 153 0
-0.018876 0.224471 0.703512 76 153 0
0.056787 0.642162 0.290914 76 153 0
-0.019633 0.748950 0.185844 76 153 0
0.066496 0.460629 0.535184 76 153 0
0.054935 0.431048 -0.099569 76 153 0
-0.038122 -0.639043 -0.522744 76 0 153
0.022059 -0.644259 -0.430899 76 0 153
0.046788 0.234095 0.681909 76 153 0
-0.143021 -0.661708 -0.540813 76 0 153
-0.050288 0.362866 -0.104890 76 153 0
0.023700 -0.157913 0.001160 76 153 0
-0.021930 -0.639131 0.000808 76 153 0
0.077669 -0.647126 -0.096992 153 0 76
-0.064474 -0.478285 -0.073967 76 153 0
0.067336 0.227978 0.618637 76 153 0
0.016754 0.135062 0.003001 76 153 0
-0.002212 0.540866 0.555031 76 153 0
-0.056662 -0.101584 -0.025886 76 153 0
0.063715 0.246225 -0.036018 76 153 0
-0.057936 -0.427673 -0.027177 76 153 0
0.058414 -0.510792 -0.502783 0 255 0
-0.066393 0.584849 0.009877 76 153 0
-0.085834 -0.530010 -0.541044 0 255 0
0.055458 0.008885 -0.021540 76 153 0
0.066586 -0.012174 -0.077593 76 153 0
-0.125544 -0.647126 -0.062848 153 0 76
-0.063949 0.115692 -0.075915 76 153 0
0.138215 -0.668494 -0.112167 153 0 76
-0.061464 0.598914 0.049372 76 153 0
-0.052798 0.581280 0.498140 76 153 0
0.012779 0.471927 0.017068 76 153 0
-0.040369 -0.160945 -0.009430 76 153 0
0.073863 -0.691695 0.068412 153 0 76
-0.036484 0.614621 0.317485 76 153 0
0.021101 0.747434 0.284617 76 153 0
-0.037852 -0.667175 -0.201447 153 0 76
0.006452 -0.498189 -0.130029 76 153 0
-0.044282 0.415057 0.486255 76 153 0
0.020858 -0.533207 -0.485636 0 255 0
-0.109944 -0.641133 -0.610720 76 0 153
0.013517 -0.343191 0.003858 76 153 0
0.066675 0.321859 0.569902 76 153 0
-0.066702 0.680431 0.145212 76 153 0
0.024920 -0.293510 -0.125106 76 153 0
-0.023182 0.484415 -0.113223 76 153 0
0.014280 0.351257 0.498436 76 153 0
0.020909 -0.647126 0.060188 153 0 76
-0.074217 -0.647126 -0.061459 76 153 0
-0.059270 0.718547 0.207051 76 153 0
-0.048935 -0.009026 -0.018078 76 153 0
0.048885 0.309017 0.644769 76 153 0
0.049129 -0.466111 -0.015152 76 153 0
0.000802 0.397968 0.472117 76 153 0
0.048058 -0.385763 -0.110173 76 153 0
0.060132 -0.137576 -0.026265 76 153 0
-0.033161 0.682091 0.431166 76 153 0
-0.015598 0.256898 0.689620 76 153 0
-0.049900 0.410855 -0.104149 76 153 0
0.065816 -0.088998 -0.043864 76 153 0
0.006563 0.713202 0.396199 76 153 0
-0.056114 -0.524679 -0.099026 76 153 0
0.045753 -0.214465 -0.011739 76 153 0
0.039888 -0.641133 -0.687279 76 0 153
-0.051583 -0.087881 -0.103591 76 153 0
-0.063712 -0.176778 -0.047569 76 153 0
-0.050541 0.628123 -0.011814 76 153 0
0.108909 -0.647126 0.011633 153 0 76
0.088937 -0.647126 -0.068811 153 0 76
-0.011113 -0.312708 -0.127960 76 153 0
0.018908 0.164247 0.002430 76 153 0
-0.021818 0.293947 -0.125145 76 153 0
0.040096 0.731818 0.134579 76 153 0
-0.012966 0.205183 0.663965 76 153 0
0.016904 0.656961 -0.015353 76 153 0
0.049991 0.313164 -0.016021 76 153 0
0.052584 0.644028 0.258301 76 153 0
-0.049716 -0.328272 -0.018872 76 153 0
-0.048468 0.703713 0.089457 76 153 0
0.088488 -0.590418 -0.616837 0 255 0
-0.112771 -0.647126 -0.131221 153 0 76
0.030179 -0.571924 -0.668885 0 255 0
0.051024 0.196961 0.647109 76 153 0
-0.093069 -0.538044 -0.583068 0 255 0
-0.039387 -0.596344 -0.008439 76 153 0
-0.066200 0.365640 -0.067488 76 153 0
0.065300 -0.394282 -0.041933 76 153 0
-0.133266 -0.686875 -0.642917 76 0 153
0.065418 0.629020 0.368046 76 153 0
0.069278 0.496581 0.505762 76 153 0
-0.035975 -0.127382 -0.119267 76 153 0
0.012499 0.283632 0.530893 76 153 0
-0.045452 0.401670 0.599953 76 153 0
0.042265 0.688010 0.410007 76 153 0
-0.044749 -0.250820 -0.110461 76 153 0
-0.097660 -0.647126 -0.042515 153 0 76
0.042772 -0.415493 -0.115467 76 153 0
-0.012524 -0.505399 -0.538861 0 255 0
0.062797 -0.531381 -0.091731 76 153 0
0.054997 -0.641133 -0.502442 76 0 153
0.053955 0.724004 0.295532 76 153 0
0.057431 0.208522 -0.100777 76 153 0
0.122497 -0.647126 -0.082389 153 0 76
-0.033808 -0.615482 -0.666066 0 255 0
-0.023249 -0.208729 -0.124734 76 153 0
0.131346 -0.641133 -0.584120 76 0 153
0.067567 0.285675 -0.073944 76 153 0
-0.052555 0.695499 0.372170 76 153 0
-0.012739 0.341809 0.648993 76 153 0
-0.063454 0.249124 -0.077758 76 153 0
-0.080999 -0.521996 -0.624481 0 255 0
0.020355 0.361645 -0.126356 76 153 0
0.061862 0.272388 0.573291 76 153 0
-0.060528 -0.605944 -0.088662 76 153 0
0.044375 0.239428 -0.010350 76 153 0
0.049705 0.329199 0.530739 76 153 0
-0.065620 -0.395479 -0.054692 76 153 0
0.006783 -0.237795 0.005642 76 153 0
-0.047570 -0.169495 -0.107641 76 153 0
0.030342 0.747176 0.262903 76 153 0
-0.023163 0.444296 -0.119322 76 153 0
0.064092 -0.667587 -0.195338 153 0 76
-0.060907 0.382234 -0.037093 76 153 0
-0.011337 0.057149 0.003616 76 153 0
-0.046421 0.640831 0.192064 76 153 0
0.014602 0.051206 0.003571 76 153 0
0.096037 -0.576837 -0.572159 0 255 0
0.095329 -0.594892 -0.591076 0 255 0
-0.016613 0.749626 0.268208 76 153 0
-0.005329 -0.559064 -0.483645 0 255 0
0.070115 0.681856 0.165989 76 153 0
0.066671 0.438647 0.545158 76 153 0
0.067645 -0.581399 -0.050688 76 153 0
-0.029683 0.729599 0.113507 76 153 0
0.015827 -0.556410 0.003246 76 153 0
-0.020615 -0.641133 -0.668654 76 0 153
0.067497 0.271855 0.624308 76 153 0
-0.029776 -0.554889 -0.001271 76 153 0
-0.051524 -0.647126 0.053638 153 0 76
0.041303 0.204768 -0.007249 76 153 0
-0.033054 0.567129 0.530918 76 153 0
0.093912 -0.620452 -0.556359 0 255 0
-0.084856 -0.641133 -0.492457 76 0 153
0.044551 -0.634843 -0.010529 76 153 0
0.021263 -0.204506 -0.126079 76 153 0
0.059511 0.607250 0.080943 76 153 0
0.119125 -0.660710 -0.486023 76 0 153
0.026646 -0.597360 -0.124643 76 153 0
-0.016334 0.402984 0.002399 76 153 0
-0.066865 0.465699 -0.051093 76 153 0
-0.015158 0.604621 0.131254 76 153 0
0.048266 0.133630 -0.014278 76 153 0
0.035458 -0.309519 -0.001956 76 153 0
-0.022998 -0.286695 -0.124795 76 153 0
0.017240 0.317840 0.002872 76 153 0
0.066462 0.236486 0.649861 76 153 0
-0.043861 0.737852 0.233402 76 153 0
-0.065145 -0.641133 -0.677244 76 0 153
0.038229 0.602187 0.338584 76 153 0
0.004762 -0.665980 0.006178 76 153 0
0.029639 0.246842 0.691229 76 153 0
-0.003117 0.409590 0.618789 76 153 0
0.002233 0.748276 0.140166 76 153 0
0.010832 -0.033469 -0.128861 76 153 0
-0.061368 -0.264368 -0.038812 76 153 0
0.063735 0.290496 -0.036093 76 153 0
0.058645 -0.349403 -0.099571 76 153 0
0.017440 0.570466 0.371699 76 153 0
-0.049081 -0.616266 -0.498098 0 255 0
0.056266 0.423787 0.580582 76 153 0
-0.066091 0.167190 -0.067908 76 153 0
-0.028849 0.727801 0.345196 76 153 0
0.023548 0.435640 0.600939 76 153 0
-0.015834 -0.665912 0.083039 153 0 76
0.056907 -0.082439 -0.101307 76 153 0
0.011655 0.397660 0.004352 76 153 0
-0.041743 -0.634361 -0.113406 76 153 0
0.068630 0.303445 -0.054359 76 153 0
0.047435 0.186627 0.599244 76 153 0
0.065134 -0.648363 0.068473 153 0 76
-0.010299 -0.254079 0.003891 76 153 0
-0.017577 -0.647126 -0.181854 153 0 76
0.110319 -0.663309 -0.680246 76 0 153
-0.061859 0.370800 0.538624 76 153 0
-0.065829 -0.346135 -0.055471 76 153 0
-0.064328 0.328690 -0.074488 76 153 0
-0.012133 0.469765 0.586764 76 153 0
0.051921 0.364091 0.516203 76 153 0
0.035029 0.071579 -0.001841 76 153 0
0.063368 -0.647126 0.028875 153 0 76
-0.010073 0.723051 0.077989 76 153 0
0.051988 0.624815 -0.017482 76 153 0
-0.004775 -0.265480 -0.129651 76 153 0
-0.017770 -0.035158 -0.126195 76 153 0
0.066277 0.371562 -0.078768 76 153 0
0.090557 -0.647126 -0.146502 153 0 76
0.007914 -0.505622 -0.508073 0 255 0
0.064420 0.178047 -0.038650 76 153 0
0.018348 -0.505682 -0.654283 0 255 0
0.131485 -0.649300 0.008062 153 0 76
-0.000506 -0.214560 0.006485 76 153 0
-0.040925 -0.621974 -0.009993 76 153 0
-0.052288 -0.177561 -0.021468 76 153 0
-0.024139 -0.423966 -0.124486 76 153 0
-0.054943 -0.666878 -0.440214 76 0 153
0.048618 0.617598 0.481047 76 153 0
-0.095784 -0.668373 0.045105 153 0 76
-0.066050 0.620171 0.420158 76 153 0
-0.049057 0.226483 0.678957 76 153 0
0.050449 0.566341 0.402339 76 153 0
-0.055616 0.305023 0.552622 76 153 0
0.058269 0.516488 0.448222 76 153 0
0.147554 -0.668640 -0.611268 76 0 153
-0.058827 0.340588 -0.029329 76 153 0
-0.056529 -0.505544 -0.594414 0 255 0
-0.044111 0.330155 -0.111123 76 153 0
-0.015288 0.188448 0.629653 76 153 0
-0.060036 0.206858 0.667401 76 153 0
-0.009137 0.516718 0.414175 76 153 0
0.021526 -0.420710 -0.126009 76 153 0
-0.061726 0.491684 -0.068485 76 153 0
-0.029340 -0.015842 -0.123134 76 153 0
-0.015564 0.509960 0.030974 76 153 0
-0.067168 0.663203 0.101150 76 153 0
-0.010062 0.536425 -0.099939 76 153 0
-0.047561 -0.459429 -0.016696 76 153 0
0.052627 -0.686569 -0.718707 76 0 153
-0.062467 0.562902 0.010946 76 153 0
0.070380 0.407131 -0.060246 76 153 0
0.047527 0.169471 -0.013532 76 153 0
0.044922 0.532067 0.422016 76 153 0
0.100435 -0.641133 -0.672783 76 0 153
-0.105531 -0.673109 -0.159665 153 0 76
-0.047858 0.709652 0.348805 76 153 0
0.020514 -0.377079 -0.126279 76 153 0
0.006544 -0.596063 -0.672856 0 255 0
0.067296 0.487084 -0.033826 76 153 0
0.034987 -0.138115 -0.001831 76 153 0
0.012524 0.624237 0.224125 76 153 0
-0.081768 -0.641133 -0.531412 76 0 153
0.093502 -0.647126 -0.024175 153 0 76
0.067720 0.115828 -0.050966 76 153 0
-0.062639 0.302179 0.575451 76 153 0
-0.040572 0.226629 -0.009636 76 153 0
-0.090624 -0.513809 -0.600717 0 255 0
0.070121 -0.358656 -0.059931 76 153 0
0.009150 0.730521 0.356865 76 153 0
-0.136732 -0.641133 -0.571986 76 0 153
-0.049385 0.187537 0.604779 76 153 0
-0.018241 0.573267 -0.079896 76 153 0
0.066668 0.368898 0.579159 76 153 0
0.095359 -0.641133 -0.634661 76 0 153
0.063596 0.103573 -0.088775 76 153 0
0.068672 -0.264570 -0.069831 76 153 0
-0.011874 -0.667605 -0.208408 153 0 76
0.029844 -0.663811 -0.000469 76 153 0
0.020840 0.181447 0.615300 76 153 0
-0.009574 0.014706 0.004083 76 153 0
0.066436 -0.593090 -0.508928 0 255 0
-0.048437 -0.082850 -0.017576 76 153 0
0.058560 0.721487 0.177777 76 153 0
0.051303 -0.647126 -0.093632 153 0 76
0.047090 0.705630 0.372003 76 153 0
0.006550 0.204848 0.567617 76 153 0
0.024486 -0.505303 -0.596714 0 255 0
-0.066267 0.633206 0.064291 76 153 0
0.035998 -0.513206 -0.490029 0 255 0
-0.006069 -0.565633 -0.129305 76 153 0
0.016039 0.456180 -0.120495 76 153 0
-0.059918 -0.347906 -0.033396 76 153 0
-0.029887 -0.238025 -0.122975 76 153 0
-0.088105 -0.641133 -0.613817 76 0 153
-0.037595 -0.505933 -0.497298 0 255 0
-0.055698 0.642446 0.154693 76 153 0
-0.058640 0.483149 0.469958 76 153 0
-0.062616 -0.249319 -0.080902 76 153 0
0.011777 -0.641133 -0.504499 76 0 153
-0.019209 -0.647126 0.048044 153 0 76
0.017621 0.321585 0.513893 76 153 0
-0.025454 -0.618883 -0.124136 76 153 0
0.025498 0.198499 0.650261 76 153 0
-0.030641 0.703769 0.055651 76 153 0
-0.018572 0.293076 0.528992 76 153 0
0.074796 -0.647802 -0.189354 153 0 76
-0.072254 -0.506444 -0.523756 0 255 0
-0.066613 0.669798 0.337568 76 153 0
0.065111 -0.196209 -0.041229 76 153 0
-0.041720 -0.382877 -0.010793 76 153 0
0.058088 0.479006 0.551624 76 153 0
0.006504 -0.664327 -0.429169 76 0 153
0.049078 -0.300894 -0.109151 76 153 0
0.045119 0.028640 -0.011101 76 153 0
0.065945 0.396715 0.568705 76 153 0
-0.017606 -0.173615 0.001955 76 153 0
0.052616 0.689762 0.065711 76 153 0
0.046487 0.429552 -0.008959 76 153 0
0.061921 0.430821 -0.025632 76 153 0
-0.018290 0.723481 0.366841 76 153 0
0.069724 0.682969 0.187770 76 153 0
-0.029217 -0.526514 -0.668111 0 255 0
0.064052 0.335678 0.551860 76 153 0
-0.026641 0.475054 0.442617 76 153 0
-0.022006 0.231323 0.560129 76 153 0
-0.108432 -0.682377 -0.678890 76 0 153
0.016415 0.753288 0.243548 76 153 0
-0.018771 0.102655 -0.125939 76 153 0
0.064556 -0.240330 -0.085171 76 153 0
0.015101 -0.555726 -0.463022 0 255 0
-0.058720 -0.664250 0.071548 153 0 76
0.066888 -0.647126 -0.141330 153 0 76
-0.003718 -0.599005 0.005634 76 153 0
0.004406 0.755746 0.198827 76 153 0
-0.015371 -0.085487 0.002547 76 153 0
-0.059040 -0.641133 -0.648594 76 0 153
0.149802 -0.671030 -0.055384 153 0 76
-0.060553 -0.106800 -0.088594 76 153 0
-0.015810 -0.452462 0.002430 76 153 0
-0.054692 -0.665089 -0.100435 76 153 0
0.000853 0.514318 0.568889 76 153 0
0.039475 0.087206 -0.118873 76 153 0
0.063427 -0.243629 -0.034940 76 153 0
0.037668 0.276341 -0.003579 76 153 0
0.066447 -0.400030 -0.078128 76 153 0
0.070131 0.399362 0.546944 76 153 0
0.067198 -0.544936 -0.075338 76 153 0
0.056937 0.179473 -0.101272 76 153 0
-0.144456 -0.679352 -0.611356 76 0 153
0.017204 -0.505320 -0.550677 0 255 0
-0.064008 0.253873 -0.048665 76 153 0
0.031232 0.727948 0.107476 76 153 0
-0.019406 -0.505342 -0.605550 0 255 0
0.066023 0.579851 0.471553 76 153 0
-0.011662 0.126161 0.003530 76 153 0
0.019168 0.548753 0.547070 76 153 0
0.093739 -0.649034 -0.172820 153 0 76
-0.063464 0.546161 -0.004006 76 153 0
-0.090376 -0.641133 -0.681269 76 0 153
0.069014 0.542032 0.482827 76 153 0
0.065032 0.706818 0.261930 76 153 0
-0.058500 0.360489 0.604964 76 153 0
0.025542 0.396945 0.619221 76 153 0
0.035152 0.608867 -0.052751 76 153 0
0.007628 0.513343 0.036677 76 153 0
-0.051199 0.573130 0.401148 76 153 0
-0.033357 0.365689 -0.002353 76 153 0
-0.058355 0.455177 0.559402 76 153 0
-0.129947 -0.669623 0.005879 153 0 76
0.067409 0.677961 0.232788 76 153 0
0.065230 0.576532 0.427732 76 153 0
0.035322 -0.238644 -0.001920 76 153 0
-0.045616 0.730713 0.282465 76 153 0
-0.029565 0.142482 -0.001214 76 153 0
-0.037584 0.641477 0.468891 76 153 0
-0.043952 0.562315 0.049446 76 153 0
0.006406 -0.522273 -0.672856 0 255 0
-0.036564 0.734682 0.310689 76 153 0
0.133055 -0.647126 -0.057917 153 0 76
-0.010227 0.437479 0.456100 76 153 0
0.046956 0.456759 -0.104280 76 153 0
0.027860 0.341805 0.645427 76 153 0
-0.047938 0.693852 0.069212 76 153 0
0.016903 -0.056357 0.002962 76 153 0
0.067513 0.648265 0.394444 76 153 0
-0.043003 -0.553075 -0.112159 76 153 0
-0.062075 -0.140284 -0.041453 76 153 0
-0.025919 -0.641133 -0.445936 76 0 153
-0.005825 -0.647126 -0.011111 153 0 76
0.115974 -0.647126 -0.110899 153 0 76
-0.027680 0.176856 0.605887 76 153 0
0.086808 -0.692087 -0.181828 153 0 76
-0.042512 0.441622 -0.107609 76 153 0
0.023316 -0.012945 0.001262 76 153 0
-0.044987 0.493507 0.448786 76 153 0
-0.002072 -0.647126 -0.198660 153 0 76
-0.007763 -0.100197 -0.128854 76 153 0
-0.130940 -0.674643 -0.126483 153 0 76
-0.029789 -0.641133 -0.707702 76 0 153
0.018890 0.305830 0.665636 76 153 0
-0.007982 0.738167 0.119092 76 153 0
0.015101 -0.512057 -0.465221 0 255 0
-0.063629 -0.549340 -0.647246 0 255 0
-0.046138 -0.583587 -0.660541 0 255 0
0.065077 0.142169 -0.041103 76 153 0
0.064201 0.508962 0.467961 76 153 0
0.034135 0.549693 0.397885 76 153 0
-0.002452 -0.144193 -0.130270 76 153 0
-0.105884 -0.664961 -0.474771 76 0 153
0.009743 -0.316539 -0.129151 76 153 0
0.141332 -0.650405 -0.526058 76 0 153
0.009408 -0.575408 -0.483645 0 255 0
0.062416 -0.602505 -0.093155 76 153 0
0.017924 -0.280509 0.002691 76 153 0
0.062845 0.516019 -0.006866 76 153 0
-0.067096 0.050372 -0.060194 76 153 0
0.016756 0.279829 0.678956 76 153 0
0.062800 -0.484552 -0.091723 76 153 0
0.050271 -0.647126 -0.028209 153 0 76
-0.029312 0.750673 0.224835 76 153 0
0.065666 0.652355 0.128582 76 153 0
0.063951 0.075251 -0.087446 76 153 0
0.091020 -0.551207 -0.609042 0 255 0
0.024096 0.455399 0.591139 76 153 0
-0.025590 -0.545720 -0.487196 0 255 0
-0.045346 0.613941 0.339074 76 153 0
0.014848 0.238402 0.003506 76 153 0
-0.055721 -0.309610 -0.099419 76 153 0
-0.051566 0.425380 -0.017749 76 153 0
-0.065152 0.240765 0.616008 76 153 0
0.042716 0.518275 -0.092590 76 153 0
0.031496 -0.647126 0.040217 153 0 76
0.051314 0.111837 -0.017355 76 153 0
-0.038540 -0.051501 -0.007584 76 153 0
0.011633 0.258913 0.542694 76 153 0
-0.065675 -0.571529 -0.054896 76 153 0
-0.114904 -0.641133 -0.501261 76 0 153
-0.061437 0.279455 0.581351 76 153 0
0.028393 -0.082328 -0.124200 76 153 0
-0.006479 -0.529334 0.004902 76 153 0
0.070176 0.017660 -0.064214 76 153 0
-0.009631 0.476184 0.018435 76 153 0
0.062201 -0.545530 -0.651124 0 255 0
0.057260 -0.647126 -0.177671 153 0 76
0.051066 0.707156 0.097737 76 153 0
-0.048936 -0.524715 -0.658509 0 255 0
0.044444 0.461755 -0.001417 76 153 0
0.029610 0.619590 0.287390 76 153 0
-0.000609 -0.641133 -0.487420 76 0 153
0.021753 0.096058 -0.125969 76 153 0
-0.060557 -0.530475 -0.035782 76 153 0
-0.006771 -0.130924 0.004826 76 153 0
0.093427 -0.641133 -0.591934 76 0 153
0.032206 0.570707 0.074708 76 153 0
-0.057343 0.066914 -0.097776 76 153 0
-0.063926 0.342871 0.561153 76 153 0
-0.034946 0.720035 0.094834 76 153 0
0.027874 -0.528247 -0.124316 76 153 0
0.070097 0.673122 0.127639 76 153 0
0.137341 -0.690505 -0.115431 153 0 76
0.010460 0.437916 0.009286 76 153 0
0.040827 0.351952 -0.006769 76 153 0
-0.055706 -0.626423 -0.099426 76 153 0
-0.021889 0.291079 0.671041 76 153 0
0.059816 -0.505585 -0.548267 0 255 0
-0.064534 0.214873 -0.073724 76 153 0
0.064732 0.665781 0.253330 76 153 0
0.052604 -0.555202 -0.018664 76 153 0
-0.060067 0.692336 0.105982 76 153 0
0.018204 0.204074 0.002617 76 153 0
-0.055316 -0.647126 -0.042320 153 0 76
-0.063690 -0.098469 -0.047483 76 153 0
0.148187 -0.680820 -0.074953 153 0 76
0.004070 -0.641133 -0.720829 76 0 153
0.052292 0.005938 -0.105927 76 153 0
0.043320 -0.538579 -0.663212 0 255 0
0.063065 -0.134403 -0.090750 76 153 0
-0.032117 -0.025367 -0.001890 76 153 0
-0.062267 0.420642 -0.039780 76 153 0
0.063789 0.363961 -0.036292 76 153 0
0.065916 -0.633531 -0.080119 76 153 0
-0.067492 0.074190 -0.062674 76 153 0
-0.092604 -0.585657 -0.587495 0 255 0
0.020869 0.341669 0.001911 76 153 0
0.143561 -0.665937 -0.092216 153 0 76
-0.088391 -0.641133 -0.571338 76 0 153
0.064095 -0.443139 -0.086893 76 153 0
0.056139 0.580722 0.498218 76 153 0
0.050243 0.671247 0.422154 76 153 0
-0.066231 0.009077 -0.056963 76 153 0
0.025820 0.673602 0.447948 76 153 0
0.021882 0.716595 0.382583 76 153 0
-0.056786 0.649437 0.175415 76 153 0
-0.043438 0.548226 0.530710 76 153 0
0.063472 0.440664 0.498159 76 153 0
-0.057492 -0.671385 -0.196184 153 0 76
0.014429 0.608351 0.306944 76 153 0
-0.016173 -0.062841 0.002335 76 153 0
0.043578 0.433615 0.472946 76 153 0
0.023906 -0.078036 0.001106 76 153 0
0.067377 0.700699 0.212861 76 153 0
-0.086481 -0.594525 -0.543035 0 255 0
0.055923 0.350888 -0.102319 76 153 0
-0.031431 0.691033 0.035875 76 153 0
0.089304 -0.511462 -0.614284 0 255 0
-0.060693 0.196019 -0.036296 76 153 0
-0.080081 -0.647126 -0.013392 153 0 76
0.027823 0.187444 -0.124368 76 153 0
0.066077 0.583761 -0.018194 76 153 0
-0.000672 -0.637751 -0.130745 76 153 0
-0.050941 -0.016408 -0.104238 76 153 0
-0.037907 0.596662 0.099081 76 153 0
0.025325 0.515106 0.419362 76 153 0
0.064172 0.466298 -0.028413 76 153 0
-0.065372 0.512277 0.484674 76 153 0
0.044215 -0.101236 -0.010187 76 153 0
0.007010 0.471690 0.437551 76 153 0
-0.062063 0.669633 0.218295 76 153 0
-0.040099 -0.136890 -0.009157 76 153 0
-0.053956 0.325954 0.627425 76 153 0
-0.038748 -0.666403 -0.007794 76 153 0
-0.045831 0.271175 -0.014945 76 153 0
0.018707 0.377568 0.630700 76 153 0
-0.024527 0.236091 0.000122 76 153 0
0.040807 0.291370 0.539220 76 153 0
-0.009514 -0.076095 -0.128387 76 153 0
-0.014991 0.254521 0.546740 76 153 0
-0.120745 -0.657981 -0.664548 76 0 153
0.066415 -0.491493 -0.046094 76 153 0
-0.058558 -0.216613 -0.028318 76 153 0
0.042631 -0.385767 -0.008586 76 153 0
0.013130 -0.114632 0.003961 76 153 0
-0.003506 0.370392 0.637792 76 153 0
0.065144 0.658407 0.300374 76 153 0
-0.055564 -0.130481 -0.099575 76 153 0
0.068224 0.526249 -0.043958 76 153 0
0.068599 0.664486 0.322329 76 153 0
0.065182 0.213472 -0.041492 76 153 0
-0.086220 -0.647926 0.050781 153 0 76
-0.013005 -0.505192 -0.582611 0 255 0
-0.063932 0.403514 -0.075785 76 153 0
-0.018403 0.651548 -0.018955 76 153 0
0.016289 0.596099 -0.066983 76 153 0
0.038957 0.631232 0.249264 76 153 0
-0.014434 0.352835 0.498625 76 153 0
0.136314 -0.647208 -0.024257 153 0 76
-0.032710 -0.685736 -0.723378 76 0 153
-0.060426 0.371840 -0.089070 76 153 0
-0.062113 0.589932 -0.018044 76 153 0
0.005759 -0.094219 0.005914 76 153 0
-0.061282 0.652343 0.410386 76 153 0
-0.057334 -0.350867 -0.097792 76 153 0
-0.067298 0.686438 0.265773 76 153 0
-0.062493 0.655555 0.138492 76 153 0
0.052676 0.671525 0.036883 76 153 0
-0.057109 -0.528574 -0.503931 0 255 0
-0.037065 -0.505645 -0.640445 0 255 0
0.051740 0.732957 0.233989 76 153 0
0.069077 -0.666185 -0.056037 76 153 0
0.046180 0.393533 0.606555 76 153 0
0.006834 -0.394340 -0.129927 76 153 0
-0.052207 0.596810 0.379763 76 153 0
0.063927 0.637099 0.021131 76 153 0
0.066238 0.651538 0.054497 76 153 0
-0.033857 -0.094424 -0.002856 76 153 0
0.019454 0.706653 0.052597 76 153 0
-0.039498 0.563790 -0.073597 76 153 0
0.017627 -0.321079 0.002769 76 153 0
-0.065891 -0.209790 -0.055701 76 153 0
0.066641 -0.174393 -0.046944 76 153 0
-0.041564 0.267820 0.555023 76 153 0
-0.046299 0.615499 0.482008 76 153 0
-0.066882 0.680242 0.304364 76 153 0
-0.003634 -0.631644 0.005656 76 153 0
0.051772 -0.040162 -0.017817 76 153 0
0.014710 0.219679 0.693687 76 153 0
-0.063621 0.634233 0.368928 76 153 0
0.029924 -0.493659 -0.123769 76 153 0
-0.035511 0.738594 0.151043 76 153 0
0.042649 0.421108 -0.113260 76 153 0
-0.038468 -0.583011 -0.116694 76 153 0
-0.041094 0.322668 -0.010164 76 153 0
0.066530 0.650881 0.338003 76 153 0
0.008548 0.524504 0.407887 76 153 0
-0.014025 0.615835 0.287569 76 153 0
-0.017229 0.409215 0.471951 76 153 0
-0.019417 -0.554797 -0.670513 0 255 0
-0.062708 0.674942 0.363255 76 153 0
0.067797 0.084603 -0.051254 76 153 0
0.046513 0.652454 0.002435 76 153 0
0.065905 -0.321926 -0.080140 76 153 0
-0.139185 -0.644423 -0.530908 76 0 153
0.010578 0.167859 0.587441 76 153 0
-0.081288 -0.505729 -0.564723 0 255 0
0.034922 -0.580377 -0.001815 76 153 0
-0.049459 0.642690 0.269996 76 153 0
0.067097 0.609877 0.405428 76 153 0
0.099375 -0.670703 -0.169261 153 0 76
-0.060396 0.512415 0.522763 76 153 0
-0.060597 0.187603 0.627921 76 153 0
0.025460 -0.667468 -0.205689 153 0 76
-0.061881 -0.060080 -0.040731 76 153 0
0.044629 -0.636991 -0.631270 76 0 153
0.064250 0.558614 0.437052 76 153 0
0.012472 -0.481029 0.004135 76 153 0
0.010252 -0.636861 -0.646163 76 0 153
0.060009 -0.505731 -0.639037 0 255 0
0.040186 0.400812 -0.118208 76 153 0
-0.014646 0.188204 0.578997 76 153 0
-0.011872 -0.574210 -0.424457 0 255 0
-0.034988 0.207986 0.576994 76 153 0
-0.016759 0.196187 0.002179 76 153 0
-0.092309 -0.569055 -0.566196 0 255 0
0.016497 -0.443796 0.003068 76 153 0
-0.037455 -0.289274 -0.006487 76 153 0
-0.061691 0.276968 -0.084345 76 153 0
-0.058594 0.668447 0.050178 76 153 0
-0.037318 0.220933 0.696258 76 153 0
-0.071742 -0.655318 -0.447717 76 0 153
-0.061334 0.619037 0.446109 76 153 0
-0.067041 -0.134253 -0.059990 76 153 0
-0.055867 0.707467 0.330490 76 153 0
0.023407 0.489088 0.019644 76 153 0
-0.108753 -0.641133 -0.651997 76 0 153
-0.060096 0.406365 0.513680 76 153 0
-0.006665 -0.532680 -0.419762 0 255 0
0.062579 0.625703 0.449398 76 153 0
-0.016537 0.624951 0.212599 76 153 0
-0.060455 -0.216888 -0.088954 76 153 0
0.069541 -0.566197 -0.644126 0 255 0
0.064837 0.141637 -0.084138 76 153 0
-0.117408 -0.655564 0.023481 153 0 76
0.029373 -0.458821 -0.123916 76 153 0
0.056881 0.441523 0.571248 76 153 0
0.042256 -0.505566 -0.529971 0 255 0
0.007079 0.187823 0.628372 76 153 0
0.067604 -0.471652 -0.050536 76 153 0
0.064738 -0.038873 -0.039840 76 153 0
-0.063145 -0.505632 -0.547439 0 255 0
0.069475 -0.406853 -0.057524 76 153 0
0.058936 -0.641133 -0.459654 76 0 153
0.069952 0.357468 -0.065032 76 153 0
-0.012140 -0.405810 0.003403 76 153 0
0.051460 -0.568959 -0.106769 76 153 0
-0.062896 0.401246 -0.044515 76 153 0
-0.046460 0.167360 -0.108756 76 153 0
0.050280 0.275234 -0.108000 76 153 0
-0.031565 -0.585285 -0.489436 0 255 0
0.049230 -0.608877 -0.109003 76 153 0
0.054877 0.066416 -0.103337 76 153 0
-0.059898 0.048137 -0.033327 76 153 0
0.050819 -0.176526 -0.107405 76 153 0
0.047747 -0.650492 -0.435655 76 0 153
-0.065920 0.555545 0.460887 76 153 0
0.016932 0.315140 -0.127259 76 153 0
0.114119 -0.641133 -0.551179 76 0 153
0.050689 0.577484 -0.055198 76 153 0
0.064927 -0.323168 -0.040541 76 153 0
0.066318 -0.641133 -0.648266 76 0 153
0.022713 0.431520 0.461777 76 153 0
-0.002419 0.224366 0.557743 76 153 0
0.056463 0.723641 0.275660 76 153 0
-0.037764 0.373366 0.622307 76 153 0
0.046755 -0.322060 -0.012752 76 153 0
-0.011999 -0.522371 -0.470343 0 255 0
0.026852 -0.201142 0.000325 76 153 0
0.056989 -0.647126 -0.000360 153 0 76
-0.037905 0.512327 -0.096342 76 153 0
-0.062719 0.662395 0.296454 76 153 0
0.062452 -0.209822 -0.093034 76 153 0
0.018277 -0.647126 -0.117845 153 0 76
-0.076467 -0.505689 -0.589451 0 255 0
-0.087557 -0.568576 -0.610156 0 255 0
0.062579 0.310888 0.624950 76 153 0
0.064917 0.407496 -0.039811 76 153 0
0.068334 -0.580735 -0.071108 76 153 0
-0.065405 -0.379408 -0.070502 76 153 0
0.044832 0.602020 0.497602 76 153 0
-0.048840 -0.198221 -0.017985 76 153 0
-0.057594 -0.660472 -0.715099 76 0 153
0.055660 -0.289428 -0.021748 76 153 0
-0.029375 -0.647126 -0.143958 153 0 76
-0.009844 0.275354 0.682305 76 153 0
-0.036097 0.561773 0.391107 76 153 0
0.004087 0.617465 0.266132 76 153 0
0.039934 0.523924 0.029794 76 153 0
0.051275 0.622130 0.119920 76 153 0
0.042049 -0.571895 -0.492723 0 255 0
-0.011688 0.712997 0.060165 76 153 0
0.033545 -0.686820 -0.432644 76 0 153
-0.025376 -0.056279 -0.124181 76 153 0
0.001190 -0.641133 -0.663273 76 0 153
-0.017915 0.351966 -0.126182 76 153 0
-0.065631 -0.439226 -0.054731 76 153 0
0.057183 -0.281066 -0.101034 76 153 0
0.036245 0.310326 -0.002163 76 153 0
-0.114804 -0.641133 -0.591605 76 0 153
0.074520 -0.527829 -0.638597 0 255 0
0.028383 0.627011 0.208615 76 153 0
-0.029166 -0.455236 -0.123152 76 153 0
-0.067550 0.189810 -0.062451 76 153 0
0.049964 0.109082 -0.108292 76 153 0
0.080567 -0.643276 -0.453053 76 0 153
0.132004 -0.684814 -0.506045 76 0 153
0.066172 0.027115 -0.045190 76 153 0
0.014148 -0.006735 -0.127976 76 153 0
0.062895 0.256935 0.585357 76 153 0
0.050909 0.574513 0.056099 76 153 0
0.067633 -0.055483 -0.073689 76 153 0
0.046904 -0.628972 -0.111333 76 153 0
0.069682 -0.333610 -0.058293 76 153 0
-0.057802 -0.647126 0.018119 153 0 76
-0.044655 0.018505 -0.013757 76 153 0
-0.059263 -0.496690 -0.030948 76 153 0
-0.045923 0.533745 0.425812 76 153 0
-0.064693 -0.037144 -0.073144 76 153 0
-0.055841 -0.507783 -0.651552 0 255 0
0.011133 -0.647126 -0.157597 153 0 76
-0.075296 -0.598164 -0.522213 0 255 0
0.042038 0.214811 0.683706 76 153 0
0.027198 0.498690 0.430339 76 153 0
0.008326 0.741209 0.326562 76 153 0
-0.004306 0.286622 -0.129780 76 153 0
-0.020793 -0.524257 -0.125379 76 153 0
-0.064718 0.591255 0.455074 76 153 0
-0.019739 0.375348 0.489210 76 153 0
-0.019304 -0.661026 -0.125776 76 153 0
0.006608 0.345742 0.649813 76 153 0
0.042705 0.622236 0.146189 76 153 0
0.022856 -0.462985 0.001383 76 153 0
0.063327 -0.303512 -0.089762 76 153 0
0.064256 -0.647126 -0.055723 153 0 76
0.137223 -0.647156 -0.641380 76 0 153
0.010413 -0.065819 -0.128973 76 153 0
-0.016456 -0.665795 -0.726814 76 0 153
-0.058160 0.145588 -0.096950 76 153 0
-0.130105 -0.668289 -0.648379 76 0 153
-0.045596 -0.563447 -0.660818 0 255 0
0.076149 -0.641788 -0.704449 76 0 153
-0.065477 -0.609728 -0.070225 76 153 0
-0.011249 -0.602871 -0.484252 0 255 0
0.041152 0.744180 0.221597 76 153 0
0.064064 0.257137 0.648455 76 153 0
-0.047421 0.596680 0.081206 76 153 0
-0.011933 -0.583263 -0.672104 0 255 0
-0.058616 0.629392 0.110496 76 153 0
0.063567 0.613573 0.379686 76 153 0
-0.049370 -0.461759 -0.105798 76 153 0
0.034322 0.746793 0.196104 76 153 0
0.043571 -0.078673 -0.009537 76 153 0
-0.065670 0.679836 0.191324 76 153 0
-0.061798 0.625622 0.082832 76 153 0
0.017534 -0.275672 -0.127073 76 153 0
-0.062320 0.079942 -0.082007 76 153 0
0.018082 -0.661755 0.083358 153 0 76
0.039323 0.603330 0.112756 76 153 0
0.069608 -0.506969 -0.058021 76 153 0
-0.060551 -0.471559 -0.035760 76 153 0
0.065385 -0.440763 -0.042250 76 153 0
0.035183 -0.538040 -0.001884 76 153 0
-0.045229 0.626324 0.140739 76 153 0
-0.067438 -0.499567 -0.062912 76 153 0
-0.060871 0.454114 0.493731 76 153 0
-0.052623 0.521341 0.009371 76 153 0
0.001026 -0.461372 -0.131197 76 153 0
-0.038485 -0.276300 -0.116728 76 153 0
0.064975 0.033265 -0.083620 76 153 0
-0.144032 -0.649530 -0.612656 76 0 153
-0.074829 -0.686969 -0.707005 76 0 153
0.065848 -0.091798 -0.080349 76 153 0
0.038417 -0.351039 -0.004332 76 153 0
-0.063276 0.041622 -0.078436 76 153 0
-0.034800 -0.690529 0.077957 153 0 76
0.035378 0.364163 0.632291 76 153 0
0.043768 0.616146 0.325927 76 153 0
0.063235 0.265603 -0.034229 76 153 0
0.032262 -0.641133 -0.707095 76 0 153
0.041257 0.262711 0.553703 76 153 0
-0.021437 0.190855 -0.125239 76 153 0
-0.060342 0.569011 -0.039144 76 153 0
-0.052571 -0.041686 -0.102593 76 153 0
-0.063787 0.365640 -0.047841 76 153 0
0.051557 -0.009580 -0.017600 76 153 0
-0.046327 0.309723 0.643826 76 153 0
-0.145628 -0.675489 -0.071667 153 0 76
0.082647 -0.641133 -0.528678 76 0 153
0.050904 -0.524596 -0.107326 76 153 0
0.000888 -0.568841 0.006854 76 153 0
0.048039 0.642972 0.226613 76 153 0
-0.089929 -0.613925 -0.553646 0 255 0
-0.034996 0.742785 0.270083 76 153 0
0.068996 -0.541582 -0.055734 76 153 0
-0.046389 0.329815 0.530192 76 153 0
-0.051852 -0.571156 -0.500111 0 255 0
-0.002004 -0.680669 0.086745 153 0 76
-0.063481 -0.152263 -0.077679 76 153 0
0.069651 0.310830 0.588101 76 153 0
0.042771 0.291191 -0.115581 76 153 0
0.002649 0.329699 -0.131043 76 153 0
-0.064130 0.493058 0.488723 76 153 0
-0.043529 0.095101 -0.111716 76 153 0
-0.055356 0.188597 -0.099778 76 153 0
-0.036455 -0.491469 -0.118725 76 153 0
0.068328 -0.468543 -0.071123 76 153 0
-0.009641 -0.622012 -0.645612 76 0 153
0.060586 -0.221307 -0.026724 76 153 0
-0.063801 0.280156 -0.047893 76 153 0
0.027887 -0.662604 -0.725064 76 0 153
-0.018330 0.589384 -0.069588 76 153 0
-0.017018 0.421288 -0.123937 76 153 0
-0.036761 0.629274 0.274920 76 153 0
0.026635 -0.606368 -0.486863 0 255 0
0.065796 -0.302898 -0.043788 76 153 0
0.070586 -0.001278 -0.061663 76 153 0
-0.091840 -0.523351 -0.561735 0 255 0
-0.050146 0.678437 0.404663 76 153 0
-0.048663 0.658385 0.437190 76 153 0
-0.026714 -0.118834 -0.000459 76 153 0
0.058529 -0.110630 -0.024644 76 153 0
-0.020128 -0.137221 -0.125565 76 153 0
0.065361 -0.559704 -0.042157 76 153 0
-0.002568 0.132850 -0.130239 76 153 0
0.015038 -0.236482 -0.127739 76 153 0
-0.022814 0.435980 0.004927 76 153 0
-0.026268 0.530344 0.040431 76 153 0
-0.065338 -0.357950 -0.070750 76 153 0
0.060651 0.473463 0.472647 76 153 0
-0.051426 -0.588033 -0.020603 76 153 0
0.000611 -0.353791 -0.131087 76 153 0
-0.041297 0.667942 0.015554 76 153 0
-0.066434 -0.410590 -0.066659 76 153 0
-0.076722 -0.692738 0.064166 153 0 76
-0.058498 -0.040779 -0.028096 76 153 0
0.055766 0.646055 0.182333 76 153 0
-0.062090 0.509488 -0.061245 76 153 0
-0.034910 0.203460 -0.120389 76 153 0
-0.035622 -0.159825 -0.119614 76 153 0
0.021928 0.229464 -0.125931 76 153 0
-0.005475 0.312704 0.665345 76 153 0
0.061144 -0.623259 -0.651892 0 255 0
0.018218 0.578034 0.088130 76 153 0
